# .PCD v0.7 - Point Cloud Data file format
VERSION 0.7
FIELDS x y z rgb
SIZE 4 4 4 4
TYPE F F F U
COUNT 1 1 1 1
WIDTH 1095
HEIGHT 1
VIEWPOINT 0 0 0 1 0 0 0
POINTS 1095
DATA ascii
-0.1977898 -1.4047508 1.1476953 4281629676
-0.19976811 -1.4324971 1.1479822 4281629676
-0.19976825 -1.4322778 1.1480597 4281629676
-0.19976836 -1.4320974 1.1481123 4281629676
-0.19976847 -1.4319772 1.148105 4281629676
-0.19976857 -1.4318322 1.1481224 4281629676
-0.19976868 -1.4316766 1.1481504 4281629676
-0.19976878 -1.4315422 1.1481643 4281629676
-0.19976887 -1.4314291 1.148157 4281629676
-0.19976898 -1.4312876 1.148178 4281629676
-0.19976908 -1.4311533 1.1481848 4281629676
-0.19976914 -1.4310862 1.1481458 4281629676
-0.19976921 -1.4310155 1.1481032 4281629676
-0.1997693 -1.4308918 1.1481065 4281629676
-0.19976944 -1.4307114 1.1481521 4281629676
-0.19976953 -1.430577 1.1481659 4281629676
-0.1997696 -1.4304957 1.148134 4281629676
-0.19976971 -1.4303756 1.1481338 4281629676
-0.19976982 -1.430181 1.1481935 4281629676
-0.19976993 -1.4300431 1.1482109 4281629676
-0.19976999 -1.4299866 1.1481543 4281629676
-0.19977005 -1.4299549 1.148087 4281629676
-0.19977012 -1.429863 1.1480656 4281629676
-0.19977026 -1.4296614 1.1481324 4281629676
-0.19977038 -1.4294809 1.148178 4281629676
-0.19977045 -1.4294033 1.1481425 4281629676
-0.19977054 -1.4293114 1.1481211 4281629676
-0.19977063 -1.4291699 1.1481421 4281629676
-0.19977072 -1.429078 1.1481206 4281629676
-0.19977079 -1.4290038 1.1480817 4281629676
-0.19977087 -1.4288979 1.1480672 4281629676
-0.19977097 -1.4287705 1.1480742 4281629676
-0.19977105 -1.4286928 1.1480457 4281629676
-0.19977112 -1.4286045 1.1480207 4281629676
-0.19977123 -1.4284559 1.1480417 4281629676
-0.19977134 -1.4283038 1.1480662 4281629676
-0.1997714 -1.4282367 1.1480271 4281629676
-0.19977149 -1.4281272 1.1480163 4281629676
-0.1997716 -1.4279751 1.1480478 4281629676
-0.1997717 -1.4278477 1.1480546 4281629676
-0.19977181 -1.4277099 1.148065 4281629676
-0.19977188 -1.4275967 1.1480647 4281629676
-0.19977196 -1.4275367 1.1480116 4281629676
-0.19977205 -1.42742 1.1480149 4281629676
-0.19977216 -1.4272397 1.1480606 4281629676
-0.1997723 -1.4270309 1.1481344 4281629676
-0.1997724 -1.426893 1.1481518 4281629676
-0.19977248 -1.4268188 1.1481128 4281629676
-0.19977255 -1.4267447 1.1480808 4281629676
-0.19977266 -1.4265856 1.1481123 4281629676
-0.19977275 -1.4264688 1.1481086 4281629676
-0.1997728 -1.4264194 1.148059 4281629676
-0.19977289 -1.4263098 1.1480482 4281629676
-0.199773 -1.4261577 1.1480796 4281629676
-0.19977309 -1.4260446 1.1480724 4281629676
-0.19977318 -1.4259562 1.1480474 4281629676
-0.19977324 -1.4258785 1.1480191 4281629676
-0.19977331 -1.425815 1.1479765 4281629676
-0.1997734 -1.4257054 1.1479657 4281629676
-0.19977354 -1.4254931 1.148043 4281629676
-0.19977362 -1.4253871 1.1480358 4281629676
-0.1997737 -1.4253094 1.1480002 4281629676
-0.19977379 -1.4251821 1.1480142 4281629676
-0.19977389 -1.42503 1.1480386 4281629676
-0.19977397 -1.4249451 1.1480172 4281629676
-0.19977404 -1.4248533 1.1479958 4281629676
-0.19977415 -1.4247366 1.147992 4281629676
-0.19977424 -1.4245952 1.148013 4281629676
-0.19977435 -1.4244183 1.1480621 4281629676
-0.19977444 -1.4243264 1.1480408 4281629676
-0.1997745 -1.4242699 1.1479912 4281629676
-0.19977458 -1.4241816 1.1479733 4281629676
-0.19977468 -1.4240472 1.1479871 4281629676
-0.19977479 -1.4238915 1.1480151 4281629676
-0.19977491 -1.4237218 1.1480644 4281629676
-0.199775 -1.4235981 1.1480676 4281629676
-0.1997751 -1.4234495 1.1480956 4281629676
-0.19977519 -1.42334 1.1480919 4281629676
-0.19977525 -1.4233011 1.1480247 4281629676
-0.19977529 -1.4232695 1.1479574 4281629676
-0.19977538 -1.4231704 1.1479431 4281629676
-0.19977549 -1.4230255 1.1479676 4281629676
-0.19977556 -1.4229194 1.1479603 4281629676
-0.19977567 -1.422785 1.1479812 4281629676
-0.19977576 -1.4226719 1.147981 4281629676
-0.19977583 -1.4225836 1.1479561 4281629676
-0.1997759 -1.4224987 1.1479347 4281629676
-0.19977599 -1.4223785 1.1479416 4281629676
-0.1997761 -1.4222264 1.1479731 4281629676
-0.19977619 -1.4221097 1.1479764 4281629676
-0.19977628 -1.4220108 1.1479621 4281629676
-0.19977637 -1.4218976 1.1479619 4281629676
-0.19977646 -1.4217597 1.1479793 4281629676
-0.19977653 -1.4216962 1.1479367 4281629676
-0.19977657 -1.4216609 1.1478729 4281629676
-0.19977666 -1.4215655 1.1478552 4281629676
-0.19977678 -1.4213568 1.147936 4281629676
-0.19977687 -1.4212507 1.1479359 4281629676
-0.19977695 -1.421173 1.1479003 4281629676
-0.19977704 -1.4210457 1.1479142 4281629676
-0.19977716 -1.4208865 1.1479528 4281629676
-0.19977723 -1.4207734 1.1479526 4281629676
-0.19977731 -1.4207063 1.1479136 4281629676
-0.19977738 -1.4206392 1.1478746 4281629676
-0.19977747 -1.4205154 1.147885 4281629676
-0.19977756 -1.4203703 1.1479164 4281629676
-0.19977765 -1.420282 1.1478915 4281629676
-0.19977772 -1.4201901 1.1478772 4281629676
-0.19977784 -1.4199991 1.1479405 4281629676
-0.19977796 -1.4198222 1.1479967 4281629676
-0.19977804 -1.4197551 1.1479577 4281629676
-0.19977808 -1.4197199 1.147894 4281629676
-0.19977814 -1.4196599 1.1478479 4281629676
-0.19977826 -1.4194865 1.1479006 4281629676
-0.19977836 -1.419345 1.1479286 4281629676
-0.19977845 -1.4192319 1.1479284 4281629676
-0.19977854 -1.4191011 1.1479458 4281629676
-0.19977862 -1.4190304 1.1479104 4281629676
-0.19977868 -1.4189633 1.1478713 4281629676
-0.19977878 -1.4188042 1.1479099 4281629676
-0.19977888 -1.4186804 1.1479203 4281629676
-0.19977894 -1.4186275 1.1478742 4281629676
-0.199779 -1.4185497 1.1478457 4281629676
-0.19977912 -1.4183764 1.1478984 4281629676
-0.19977923 -1.4182208 1.1479335 4281629676
-0.1997793 -1.418143 1.1479051 4281629676
-0.19977939 -1.4180299 1.1479049 4281629676
-0.19977948 -1.4178954 1.1479259 4281629676
-0.19977956 -1.4178107 1.1479044 4281629676
-0.19977966 -1.4176834 1.1479183 4281629676
-0.19977975 -1.4175526 1.1479357 4281629676
-0.19977982 -1.4174501 1.1479321 4281629676
-0.19977991 -1.4173476 1.1479212 4281629676
-0.19978 -1.4172415 1.147921 4281629676
-0.19978008 -1.4171389 1.1479102 4281629676
-0.19978017 -1.4170364 1.1479064 4281629676
-0.19978026 -1.4169233 1.1479063 4281629676
-0.1997803 -1.4168952 1.1478355 4281629676
-0.19978034 -1.4168634 1.1477683 4281629676
-0.19978043 -1.4167645 1.147754 4281629676
-0.19978055 -1.4165734 1.1478243 4281629676
-0.19978066 -1.4164143 1.1478699 4281629676
-0.19978075 -1.4163046 1.1478661 4281629676
-0.19978082 -1.4162198 1.1478448 4281629676
-0.19978091 -1.4160889 1.1478622 4281629676
-0.19978102 -1.4159298 1.1479079 4281629676
-0.19978109 -1.4158591 1.1478723 4281629676
-0.19978116 -1.4157743 1.147851 4281629676
-0.19978125 -1.4156435 1.1478684 4281629676
-0.19978133 -1.4155799 1.1478258 4281629676
-0.1997814 -1.4155022 1.1477975 4281629676
-0.19978148 -1.4153855 1.1478078 4281629676
-0.1997816 -1.4152192 1.1478535 4281629676
-0.19978169 -1.4151061 1.1478603 4281629676
-0.19978176 -1.4149965 1.1478566 4281629676
-0.19978184 -1.4149258 1.1478211 4281629676
-0.19978189 -1.4148729 1.1477751 4281629676
-0.19978197 -1.4147916 1.1477501 4281629676
-0.19978206 -1.4146643 1.147764 4281629676
-0.19978216 -1.4145157 1.1477991 4281629676
-0.19978224 -1.414431 1.1477777 4281629676
-0.19978231 -1.4143461 1.1477563 4281629676
-0.1997824 -1.4142401 1.1477561 4281629676
-0.19978246 -1.4141588 1.1477312 4281629676
-0.19978257 -1.4140245 1.1477522 4281629676
-0.19978267 -1.4138724 1.1477908 4281629676
-0.19978276 -1.4137627 1.1477941 4281629676
-0.19978285 -1.4136318 1.1478115 4281629676
-0.19978292 -1.4135329 1.1478043 4281629676
-0.19978298 -1.4134977 1.1477405 4281629676
-0.19978306 -1.4133986 1.1477262 4281629676
-0.19978316 -1.4132431 1.1477684 4281629676
-0.19978325 -1.4131405 1.1477646 4281629676
-0.19978334 -1.4130132 1.1477855 4281629676
-0.19978343 -1.4129001 1.1477853 4281629676
-0.1997835 -1.412787 1.1477922 4281629676
-0.19978364 -1.4125994 1.147859 4281629676
-0.1997837 -1.4125252 1.1478341 4281629676
-0.19978376 -1.41249 1.1477704 4281629676
-0.19978383 -1.4123981 1.1477561 4281629676
-0.19978392 -1.4122636 1.1477771 4281629676
-0.199784 -1.4121753 1.1477592 4281629676
-0.19978409 -1.4120622 1.1477661 4281629676
-0.19978419 -1.4119242 1.1477906 4281629676
-0.19978426 -1.4118146 1.1477939 4281629676
-0.19978435 -1.4116908 1.1478043 4281629676
-0.19978444 -1.4115741 1.1478146 4281629676
-0.19978452 -1.4114858 1.1477968 4281629676
-0.19978459 -1.4114116 1.1477718 4281629676
-0.19978467 -1.4113197 1.1477575 4281629676
-0.19978474 -1.411242 1.1477292 4281629676
-0.1997848 -1.4111749 1.1476901 4281629676
-0.19978489 -1.411044 1.1477146 4281629676
-0.19978499 -1.4109097 1.1477355 4281629676
-0.19978507 -1.4108319 1.1477141 4281629676
-0.19978514 -1.41074 1.1476998 4281629676
-0.19978522 -1.4106269 1.1477067 4281629676
-0.19978532 -1.4105066 1.1477135 4281629676
-0.1997854 -1.4104147 1.1477063 4281629676
-0.19978546 -1.4103334 1.1476814 4281629676
-0.19978553 -1.4102522 1.1476564 4281629676
-0.19978561 -1.4101603 1.1476421 4281629676
-0.19978569 -1.4100578 1.1476384 4281629676
-0.1997858 -1.4098915 1.1476911 4281629676
-0.19978589 -1.4097642 1.1477121 4281629676
-0.19978596 -1.4096794 1.1476908 4281629676
-0.19978605 -1.4095627 1.1477011 4281629676
-0.19978614 -1.4094388 1.1477185 4281629676
-0.19978623 -1.4093187 1.1477325 4281629676
-0.19978631 -1.4092338 1.147711 4281629676
-0.19978638 -1.4091667 1.1476721 4281629676
-0.19978644 -1.4090784 1.1476613 4281629676
-0.19978653 -1.4089688 1.1476647 4281629676
-0.1997866 -1.4088945 1.1476326 4281629676
-0.19978668 -1.408792 1.1476359 4281629676
-0.19978678 -1.4086293 1.1476852 4281629676
-0.19978687 -1.4085268 1.1476815 4281629676
-0.19978695 -1.4084491 1.147653 4281629676
-0.19978702 -1.4083395 1.1476563 4281629676
-0.19978711 -1.4082228 1.1476667 4281629676
-0.19978718 -1.4081451 1.1476454 4281629676
-0.19978724 -1.408078 1.1476064 4281629676
-0.19978732 -1.4079825 1.1476026 4281629676
-0.19978741 -1.4078693 1.1476095 4281629676
-0.19978751 -1.4077066 1.1476587 4281629676
-0.1997876 -1.4075828 1.1476761 4281629676
-0.19978768 -1.4075122 1.1476476 4281629676
-0.19978775 -1.4074203 1.1476333 4281629676
-0.19978784 -1.4072824 1.1476649 4281629676
-0.19978794 -1.4071196 1.147714 4281629676
-0.19978803 -1.4069923 1.147735 4281629676
-0.19978811 -1.4069145 1.1477137 4281629676
-0.19978818 -1.4068439 1.1476781 4281629676
-0.19978824 -1.4067768 1.1476462 4281629676
-0.1997883 -1.4067097 1.1476142 4281629676
-0.19978841 -1.4065646 1.1476458 4281629676
-0.1997885 -1.4064338 1.1476703 4281629676
-0.19978857 -1.4063383 1.1476666 4281629676
-0.19978866 -1.4062322 1.1476665 4281629676
-0.19978872 -1.4061615 1.147638 4281629676
-0.19978879 -1.4060804 1.147613 4281629676
-0.19978887 -1.4059813 1.1476129 4281629676
-0.19978897 -1.4058292 1.1476586 4281629676
-0.19978906 -1.4056913 1.1476901 4281629676
-0.19978914 -1.40561 1.1476651 4281629676
-0.1997892 -1.4055535 1.1476227 4281629676
-0.19978927 -1.4054757 1.1476012 4281629676
-0.19978936 -1.4053378 1.1476328 4281629676
-0.20176725 -1.4339303 1.147331 4281629676
-0.2017674 -1.4336755 1.1474366 4281629676
-0.20176764 -1.4332544 1.1476727 4281629676
-0.20176807 -1.4324296 1.1482332 4281629676
-0.20176817 -1.432281 1.148247 4281629676
-0.20176826 -1.4321785 1.1482363 4281629676
-0.20176835 -1.4320654 1.148229 4281629676
-0.20176843 -1.4319735 1.1482075 4281629676
-0.2017685 -1.4319029 1.148165 4281629676
-0.20176861 -1.4317544 1.148186 4281629676
-0.2017687 -1.4316306 1.1481892 4281629676
-0.20176879 -1.4315281 1.1481785 4281629676
-0.2017689 -1.4313512 1.1482205 4281629676
-0.20176899 -1.4312381 1.1482133 4281629676
-0.20176908 -1.4311285 1.1482024 4281629676
-0.20176916 -1.4310684 1.1481563 4281629676
-0.20176925 -1.4309589 1.1481456 4281629676
-0.20176935 -1.4307927 1.1481841 4281629676
-0.20176946 -1.4306654 1.1481909 4281629676
-0.20176955 -1.4305345 1.1482012 4281629676
-0.20176965 -1.4303967 1.1482116 4281629676
-0.20176977 -1.4302304 1.1482502 4281629676
-0.20176986 -1.4301172 1.1482428 4281629676
-0.20176993 -1.4300253 1.1482215 4281629676
-0.20177002 -1.4299122 1.1482142 4281629676
-0.2017701 -1.4298451 1.1481751 4281629676
-0.20177016 -1.4298064 1.1481079 4281629676
-0.20177022 -1.4297392 1.1480689 4281629676
-0.20177032 -1.429612 1.1480757 4281629676
-0.20177045 -1.429382 1.1481637 4281629676
-0.20177059 -1.4292052 1.1482058 4281629676
-0.20177066 -1.4291027 1.1481949 4281629676
-0.20177074 -1.429032 1.1481524 4281629676
-0.2017708 -1.4289896 1.1480957 4281629676
-0.20177092 -1.4288057 1.1481448 4281629676
-0.20177101 -1.4286891 1.1481411 4281629676
-0.20177108 -1.4286042 1.1481127 4281629676
-0.20177118 -1.4284593 1.1481371 4281629676
-0.20177132 -1.4282612 1.1482004 4281629676
-0.20177141 -1.428141 1.1482002 4281629676
-0.20177148 -1.4280809 1.148147 4281629676
-0.20177154 -1.4280245 1.1480974 4281629676
-0.20177162 -1.4279538 1.1480619 4281629676
-0.20177171 -1.4278265 1.1480688 4281629676
-0.20177181 -1.4276816 1.1480862 4281629676
-0.2017719 -1.427579 1.1480753 4281629676
-0.20177199 -1.4274517 1.1480821 4281629676
-0.20177211 -1.4272856 1.1481208 4281629676
-0.2017722 -1.4271582 1.1481276 4281629676
-0.20177229 -1.4270627 1.1481097 4281629676
-0.20177236 -1.4269674 1.1480918 4281629676
-0.20177245 -1.4268543 1.1480845 4281629676
-0.20177257 -1.4266951 1.1481231 4281629676
-0.20177266 -1.4265856 1.1481123 4281629676
-0.20177273 -1.4265007 1.1480839 4281629676
-0.20177281 -1.4264053 1.148066 4281629676
-0.2017729 -1.4262922 1.1480658 4281629676
-0.201773 -1.4261719 1.1480656 4281629676
-0.20177308 -1.426073 1.1480513 4281629676
-0.20177318 -1.4259315 1.1480721 4281629676
-0.20177329 -1.4257759 1.1481001 4281629676
-0.20177339 -1.4256274 1.1481282 4281629676
-0.20177349 -1.4255071 1.1481279 4281629676
-0.20177354 -1.4254647 1.1480713 4281629676
-0.20177361 -1.4253942 1.1480287 4281629676
-0.2017737 -1.4252704 1.1480319 4281629676
-0.20177382 -1.4251007 1.1480812 4281629676
-0.20177391 -1.424991 1.1480703 4281629676
-0.20177397 -1.4249451 1.1480172 4281629676
-0.20177403 -1.4248958 1.1479605 4281629676
-0.20177412 -1.4247862 1.1479497 4281629676
-0.20177424 -1.4246129 1.1480024 4281629676
-0.20177437 -1.4244041 1.1480763 4281629676
-0.20177446 -1.4242768 1.1480831 4281629676
-0.20177455 -1.4241743 1.1480722 4281629676
-0.20177464 -1.4240541 1.148072 4281629676
-0.20177469 -1.4240153 1.1480119 4281629676
-0.20177476 -1.4239483 1.1479728 4281629676
-0.20177488 -1.423775 1.1480185 4281629676
-0.20177498 -1.4236228 1.1480501 4281629676
-0.20177507 -1.4234991 1.1480533 4281629676
-0.20177516 -1.4234002 1.148039 4281629676
-0.20177524 -1.4233047 1.1480211 4281629676
-0.20177533 -1.423188 1.1480244 4281629676
-0.20177542 -1.4230678 1.1480312 4281629676
-0.20177551 -1.4229795 1.1480063 4281629676
-0.20177557 -1.4229194 1.1479603 4281629676
-0.20177567 -1.4227815 1.1479847 4281629676
-0.20177577 -1.4226259 1.1480198 4281629676
-0.20177585 -1.422541 1.1479914 4281629676
-0.20177592 -1.4224563 1.14797 4281629676
-0.20177601 -1.4223289 1.1479768 4281629676
-0.20177613 -1.4221662 1.148019 4281629676
-0.20177622 -1.4220247 1.148047 4281629676
-0.20177633 -1.4219046 1.1480467 4281629676
-0.2017764 -1.4218127 1.1480324 4281629676
-0.20177646 -1.4217669 1.1479722 4281629676
-0.20177652 -1.421721 1.1479191 4281629676
-0.20177659 -1.4216114 1.1479154 4281629676
-0.2017767 -1.4214699 1.1479362 4281629676
-0.20177679 -1.4213532 1.1479396 4281629676
-0.20177688 -1.4212579 1.1479287 4281629676
-0.20177695 -1.4211659 1.1479074 4281629676
-0.20177704 -1.4210421 1.1479177 4281629676
-0.20177716 -1.4208795 1.1479598 4281629676
-0.20177726 -1.4207202 1.1479985 4281629676
-0.20177735 -1.4206107 1.1479946 4281629676
-0.2017774 -1.4205613 1.147945 4281629676
-0.20177747 -1.420487 1.1479131 4281629676
-0.20177756 -1.4203739 1.1479129 4281629676
-0.20177765 -1.4202644 1.1479092 4281629676
-0.20177774 -1.4201618 1.1478983 4281629676
-0.20177783 -1.4200133 1.1479335 4281629676
-0.20177796 -1.4198258 1.1479932 4281629676
-0.20177805 -1.4197127 1.147993 4281629676
-0.20177813 -1.4196137 1.1479857 4281629676
-0.2017782 -1.4195395 1.1479537 4281629676
-0.20177828 -1.4194405 1.1479394 4281629676
-0.20177838 -1.4192954 1.1479709 4281629676
-0.20177846 -1.4192001 1.147953 4281629676
-0.20177853 -1.4191117 1.1479353 4281629676
-0.20177862 -1.418995 1.1479385 4281629676
-0.20177872 -1.4188747 1.1479454 4281629676
-0.2017788 -1.4187758 1.1479381 4281629676
-0.20177887 -1.4186875 1.1479132 4281629676
-0.20177896 -1.4185849 1.1479095 4281629676
-0.20177907 -1.4184328 1.147941 4281629676
-0.20177914 -1.4183339 1.1479337 4281629676
-0.20177922 -1.418242 1.1479194 4281629676
-0.20177932 -1.4181041 1.1479368 4281629676
-0.20177941 -1.4179909 1.1479436 4281629676
-0.20177948 -1.4178848 1.1479363 4281629676
-0.20177956 -1.4178036 1.1479114 4281629676
-0.20177962 -1.4177719 1.1478442 4281629676
-0.20177969 -1.4176836 1.1478193 4281629676
-0.2017798 -1.4175315 1.1478579 4281629676
-0.20177992 -1.4173582 1.1479106 4281629676
-0.20177999 -1.4172415 1.147921 4281629676
-0.20178008 -1.4171389 1.1479102 4281629676
-0.20178016 -1.4170648 1.1478783 4281629676
-0.20178021 -1.4169905 1.1478462 4281629676
-0.20178032 -1.4168704 1.1478531 4281629676
-0.20178041 -1.4167218 1.1478882 4281629676
-0.20178051 -1.4165874 1.1479092 4281629676
-0.20178059 -1.416492 1.1478983 4281629676
-0.20178066 -1.4164143 1.1478699 4281629676
-0.20178077 -1.416255 1.1479084 4281629676
-0.20178087 -1.4160888 1.1479613 4281629676
-0.20178095 -1.4160181 1.1479257 4281629676
-0.201781 -1.4159758 1.147862 4281629676
-0.20178109 -1.4158591 1.1478723 4281629676
-0.20178118 -1.4157283 1.1478899 4281629676
-0.20178127 -1.4156116 1.1478931 4281629676
-0.20178136 -1.4155091 1.1478894 4281629676
-0.20178144 -1.4154278 1.1478645 4281629676
-0.2017815 -1.4153501 1.1478361 4281629676
-0.2017816 -1.415205 1.1478676 4281629676
-0.20178168 -1.4151274 1.1478392 4281629676
-0.20178175 -1.4150461 1.1478143 4281629676
-0.20178184 -1.4149082 1.1478387 4281629676
-0.20178194 -1.4147737 1.1478597 4281629676
-0.20178205 -1.4146287 1.1478913 4281629676
-0.20178212 -1.4145191 1.1478945 4281629676
-0.2017822 -1.4144307 1.1478767 4281629676
-0.20178227 -1.414353 1.1478482 4281629676
-0.20178236 -1.4142399 1.147848 4281629676
-0.20178245 -1.4141197 1.147862 4281629676
-0.20178252 -1.4140455 1.14783 4281629676
-0.20178258 -1.4139855 1.147791 4281629676
-0.20178267 -1.4138688 1.1477942 4281629676
-0.20178276 -1.4137309 1.1478188 4281629676
-0.20178285 -1.4136177 1.1478256 4281629676
-0.20178293 -1.4135258 1.1478113 4281629676
-0.20178303 -1.4133879 1.1478357 4281629676
-0.20178312 -1.4132782 1.147832 4281629676
-0.20178318 -1.4132005 1.1478107 4281629676
-0.20178325 -1.4131122 1.1477928 4281629676
-0.20178333 -1.4130203 1.1477785 4281629676
-0.20178342 -1.4129071 1.1477783 4281629676
-0.20178351 -1.4127762 1.1478028 4281629676
-0.20178361 -1.4126525 1.1478132 4281629676
-0.20178372 -1.4124968 1.1478553 4281629676
-0.20178382 -1.4123377 1.1479009 4281629676
-0.2017839 -1.4122529 1.1478796 4281629676
-0.20178396 -1.4121964 1.147837 4281629676
-0.20178401 -1.4121293 1.1477979 4281629676
-0.2017841 -1.4120303 1.1477908 4281629676
-0.20178418 -1.4119278 1.147787 4281629676
-0.20178427 -1.4118146 1.1477939 4281629676
-0.20178436 -1.4116874 1.1478077 4281629676
-0.20178445 -1.4115777 1.1478111 4281629676
-0.20178454 -1.411454 1.1478285 4281629676
-0.20178461 -1.4113727 1.1478035 4281629676
-0.20178467 -1.4113091 1.1477681 4281629676
-0.20178476 -1.4112066 1.1477573 4281629676
-0.20178483 -1.4111041 1.1477536 4281629676
-0.20178491 -1.4110264 1.1477323 4281629676
-0.20178498 -1.4109273 1.147725 4281629676
-0.20178509 -1.4107894 1.1477494 4281629676
-0.20178518 -1.4106479 1.1477774 4281629676
-0.20178528 -1.4105065 1.1478125 4281629676
-0.20178536 -1.4104146 1.1477982 4281629676
-0.20178542 -1.4103616 1.1477522 4281629676
-0.20178549 -1.4102874 1.1477202 4281629676
-0.20178556 -1.4101707 1.1477306 4281629676
-0.20178565 -1.4100575 1.1477374 4281629676
-0.20178573 -1.4099622 1.1477267 4281629676
-0.20178582 -1.4098525 1.14773 4281629676
-0.20178591 -1.4097464 1.1477298 4281629676
-0.20178598 -1.4096369 1.1477331 4281629676
-0.2017861 -1.4094387 1.1478105 4281629676
-0.20178621 -1.4093043 1.1478385 4281629676
-0.20178625 -1.4092619 1.1477818 4281629676
-0.20178631 -1.409209 1.1477358 4281629676
-0.20178641 -1.4090889 1.1477426 4281629676
-0.2017865 -1.408965 1.14776 4281629676
-0.20178658 -1.4088696 1.1477493 4281629676
-0.20178664 -1.4087919 1.1477278 4281629676
-0.20178673 -1.4086928 1.1477207 4281629676
-0.20178679 -1.4086187 1.1476886 4281629676
-0.20178688 -1.4085232 1.1476849 4281629676
-0.20178698 -1.4083357 1.1477588 4281629676
-0.20178707 -1.4082084 1.1477798 4281629676
-0.20178714 -1.4081236 1.1477585 4281629676
-0.20178725 -1.4079927 1.1477829 4281629676
-0.20178732 -1.4078972 1.1477722 4281629676
-0.20178738 -1.4078585 1.147712 4281629676
-0.20178744 -1.4077879 1.1476835 4281629676
-0.20178756 -1.4075968 1.147761 4281629676
-0.20178765 -1.4074659 1.1477784 4281629676
-0.20178773 -1.4073988 1.1477464 4281629676
-0.20178777 -1.4073635 1.1476828 4281629676
-0.20178784 -1.4072576 1.1476896 4281629676
-0.20178793 -1.4071373 1.1477035 4281629676
-0.20178802 -1.4070312 1.1477033 4281629676
-0.2017881 -1.4069393 1.147689 4281629676
-0.20178817 -1.4068475 1.1476747 4281629676
-0.20178825 -1.4067554 1.1476674 4281629676
-0.20178834 -1.4066459 1.1476707 4281629676
-0.20178841 -1.4065504 1.1476599 4281629676
-0.20178851 -1.4064125 1.1476915 4281629676
-0.20178859 -1.4062958 1.1477019 4281629676
-0.20178866 -1.406211 1.1476876 4281629676
-0.20178874 -1.4061121 1.1476803 4281629676
-0.20178884 -1.4059598 1.1477259 4281629676
-0.20376788 -1.432677 1.1482266 4281629676
-0.20376796 -1.4325709 1.1482122 4281629676
-0.20376803 -1.4325145 1.1481626 4281629676
-0.20376812 -1.4324049 1.1481519 4281629676
-0.20376825 -1.4321855 1.1482292 4281629676
-0.20376837 -1.4320264 1.1482607 4281629676
-0.20376845 -1.4319345 1.1482393 4281629676
-0.20376854 -1.4318285 1.1482249 4281629676
-0.20376861 -1.4317544 1.148186 4281629676
-0.20376869 -1.4316518 1.1481751 4281629676
-0.20376877 -1.4315422 1.1481643 4281629676
-0.20376885 -1.431461 1.1481323 4281629676
-0.20376897 -1.4313124 1.1481533 4281629676
-0.20376907 -1.4311709 1.1481742 4281629676
-0.20376915 -1.4310756 1.1481493 4281629676
-0.20376924 -1.4309554 1.148149 4281629676
-0.20376933 -1.4308529 1.1481382 4281629676
-0.20376945 -1.4306902 1.1481732 4281629676
-0.20376956 -1.4305168 1.1482118 4281629676
-0.20376964 -1.4304179 1.1481975 4281629676
-0.20376974 -1.4302976 1.1481973 4281629676
-0.20376986 -1.430096 1.1482641 4281629676
-0.20376995 -1.4299864 1.1482532 4281629676
-0.20377003 -1.42993 1.1482036 4281629676
-0.20377007 -1.4298983 1.1481293 4281629676
-0.20377012 -1.4298701 1.1480585 4281629676
-0.20377024 -1.4297216 1.1480795 4281629676
-0.20377037 -1.4295093 1.1481569 4281629676
-0.20377044 -1.4294245 1.1481284 4281629676
-0.2037705 -1.4293644 1.1480824 4281629676
-0.20377061 -1.4292407 1.1480856 4281629676
-0.2037707 -1.4291205 1.1480854 4281629676
-0.20377079 -1.4289968 1.1480887 4281629676
-0.20377091 -1.4288235 1.1481272 4281629676
-0.20377098 -1.4287493 1.1480953 4281629676
-0.20377105 -1.4286716 1.1480597 4281629676
-0.20377116 -1.4285125 1.1480913 4281629676
-0.20377128 -1.4283355 1.1481404 4281629676
-0.20377137 -1.4282295 1.1481261 4281629676
-0.20377146 -1.4281341 1.1481082 4281629676
-0.20377158 -1.4279643 1.1481503 4281629676
-0.20377167 -1.427844 1.1481501 4281629676
-0.20377174 -1.4277521 1.1481287 4281629676
-0.20377183 -1.4276462 1.1481143 4281629676
-0.20377192 -1.427526 1.1481212 4281629676
-0.20377201 -1.4274341 1.1480998 4281629676
-0.20377207 -1.4273776 1.1480502 4281629676
-0.20377214 -1.4272963 1.1480182 4281629676
-0.20377223 -1.4271619 1.1480321 4281629676
-0.20377234 -1.4270382 1.1480354 4281629676
-0.20377244 -1.4268897 1.1480563 4281629676
-0.20377254 -1.426734 1.1480914 4281629676
-0.20377263 -1.4266422 1.14807 4281629676
-0.20377272 -1.4265326 1.1480591 4281629676
-0.2037728 -1.426423 1.1480554 4281629676
-0.20377292 -1.4262744 1.1480764 4281629676
-0.20377301 -1.4261401 1.1480902 4281629676
-0.20377308 -1.4260517 1.1480724 4281629676
-0.20377317 -1.4259492 1.1480545 4281629676
-0.20377328 -1.4258255 1.1480578 4281629676
-0.20377336 -1.4257052 1.1480646 4281629676
-0.20377344 -1.4256063 1.1480503 4281629676
-0.20377353 -1.4255143 1.148029 4281629676
-0.20377362 -1.4253978 1.1480252 4281629676
-0.20377369 -1.4253058 1.1480038 4281629676
-0.20377377 -1.4252175 1.1479859 4281629676
-0.20377384 -1.4251292 1.147961 4281629676
-0.20377396 -1.4249487 1.1480137 4281629676
-0.20377408 -1.4247861 1.1480488 4281629676
-0.20377414 -1.4247366 1.147992 4281629676
-0.2037742 -1.4246767 1.147946 4281629676
-0.2037743 -1.4245352 1.147967 4281629676
-0.20377439 -1.424422 1.1479667 4281629676
-0.2037745 -1.4242947 1.1479735 4281629676
-0.20377462 -1.4241037 1.1480368 4281629676
-0.20377472 -1.4239552 1.1480577 4281629676
-0.20377479 -1.4238633 1.1480434 4281629676
-0.20377487 -1.423782 1.1480114 4281629676
-0.20377494 -1.4237291 1.1479583 4281629676
-0.20377502 -1.4236301 1.147944 4281629676
-0.20377512 -1.4234852 1.1479684 4281629676
-0.20377521 -1.4233649 1.1479753 4281629676
-0.2037753 -1.4232411 1.1479785 4281629676
-0.20377542 -1.4230784 1.1480206 4281629676
-0.20377551 -1.4229511 1.1480346 4281629676
-0.2037756 -1.4228557 1.1480167 4281629676
-0.20377569 -1.4227319 1.1480271 4281629676
-0.20377579 -1.4225833 1.1480551 4281629676
-0.20377587 -1.422495 1.1480302 4281629676
-0.20377594 -1.4224137 1.1480052 4281629676
-0.20377605 -1.4222794 1.1480191 4281629676
-0.20377611 -1.4222016 1.1479907 4281629676
-0.20377618 -1.4221239 1.1479622 4281629676
-0.20377627 -1.4220037 1.1479691 4281629676
-0.20377637 -1.4218764 1.1479759 4281629676
-0.20377643 -1.4218023 1.147944 4281629676
-0.20377652 -1.4217032 1.1479367 4281629676
-0.20377663 -1.4215583 1.1479611 4281629676
-0.20377672 -1.4214451 1.1479609 4281629676
-0.20377679 -1.4213568 1.147936 4281629676
-0.20377687 -1.4212649 1.1479217 4281629676
-0.20377696 -1.4211482 1.147925 4281629676
-0.20377705 -1.4210209 1.147939 4281629676
-0.20377715 -1.4209007 1.1479387 4281629676
-0.20377722 -1.4208124 1.1479208 4281629676
-0.20377731 -1.4206992 1.1479206 4281629676
-0.2037774 -1.420579 1.1479274 4281629676
-0.20377749 -1.4204694 1.1479237 4281629676
-0.20377757 -1.4203597 1.14792 4281629676
-0.20377766 -1.4202466 1.1479268 4281629676
-0.20377775 -1.4201299 1.1479301 4281629676
-0.20377782 -1.4200381 1.1479087 4281629676
-0.20377791 -1.4199356 1.147905 4281629676
-0.20377803 -1.4197409 1.1479717 4281629676
-0.20377812 -1.4196349 1.1479645 4281629676
-0.20377819 -1.4195678 1.1479255 4281629676
-0.20377827 -1.4194653 1.1479218 4281629676
-0.20377837 -1.4193168 1.1479498 4281629676
-0.20377846 -1.4192001 1.147953 4281629676
-0.20377855 -1.4190727 1.147967 4281629676
-0.20377867 -1.4188994 1.1480197 4281629676
-0.20377874 -1.4188111 1.1480018 4281629676
-0.2037788 -1.4187722 1.1479417 4281629676
-0.20377886 -1.41873 1.1478779 4281629676
-0.20377894 -1.4186275 1.1478742 4281629676
-0.20377904 -1.4184612 1.1479198 4281629676
-0.20377913 -1.4183587 1.147909 4281629676
-0.20377919 -1.4182986 1.1478701 4281629676
-0.20377927 -1.4182316 1.147831 4281629676
-0.20377935 -1.4181219 1.1478273 4281629676
-0.20377949 -1.417892 1.1479293 4281629676
-0.20377959 -1.4177469 1.1479609 4281629676
-0.20377967 -1.417655 1.1479466 4281629676
-0.20377973 -1.4175879 1.1479075 4281629676
-0.2037798 -1.4175315 1.1478579 4281629676
-0.20377985 -1.417482 1.1478083 4281629676
-0.20377994 -1.417376 1.147801 4281629676
-0.20378006 -1.4171849 1.1478714 4281629676
-0.20378016 -1.41704 1.147903 4281629676
-0.20378025 -1.4169233 1.1479063 4281629676
-0.20378032 -1.4168278 1.1478955 4281629676
-0.20378043 -1.4167005 1.1479094 4281629676
-0.2037805 -1.4165909 1.1479056 4281629676
-0.20378059 -1.4164742 1.1479089 4281629676
-0.20378068 -1.4163753 1.1479017 4281629676
-0.20378076 -1.4162976 1.1478733 4281629676
-0.20378084 -1.4161808 1.1478765 4281629676
-0.20378092 -1.4160713 1.1478798 4281629676
-0.20378099 -1.41599 1.1478549 4281629676
-0.20378107 -1.4159017 1.147837 4281629676
-0.20378117 -1.4157566 1.1478616 4281629676
-0.20378126 -1.4156435 1.1478684 4281629676
-0.20378134 -1.4155409 1.1478647 4281629676
-0.20378143 -1.4154384 1.1478539 4281629676
-0.2037815 -1.4153395 1.1478466 4281629676
-0.20378159 -1.415244 1.1478359 4281629676
-0.20378166 -1.4151309 1.1478356 4281629676
-0.20378177 -1.4149823 1.1478707 4281629676
-0.20378184 -1.414894 1.1478528 4281629676
-0.20378192 -1.4148269 1.1478138 4281629676
-0.20378201 -1.4147137 1.1478207 4281629676
-0.2037821 -1.414597 1.1478239 4281629676
-0.20378217 -1.4145087 1.1478062 4281629676
-0.20378225 -1.4144274 1.1477813 4281629676
-0.20378233 -1.4142931 1.1478022 4281629676
-0.20378242 -1.4141692 1.1478196 4281629676
-0.20378253 -1.4140313 1.1478441 4281629676
-0.20378262 -1.4139181 1.1478438 4281629676
-0.20378269 -1.4138192 1.1478366 4281629676
-0.20378277 -1.4137273 1.1478223 4281629676
-0.20378284 -1.4136567 1.1477869 4281629676
-0.20378289 -1.4136214 1.1477231 4281629676
-0.20378296 -1.4135507 1.1476947 4281629676
-0.20378311 -1.4132996 1.147818 4281629676
-0.2037832 -1.4131509 1.147853 4281629676
-0.20378327 -1.4130945 1.1478034 4281629676
-0.20378335 -1.412999 1.1477926 4281629676
-0.20378344 -1.4128681 1.1478171 4281629676
-0.2037835 -1.4128046 1.1477746 4281629676
-0.20378356 -1.4127517 1.1477284 4281629676
-0.20378366 -1.4126067 1.14776 4281629676
-0.20378375 -1.4124864 1.147774 4281629676
-0.20378381 -1.4124371 1.1477172 4281629676
-0.20378387 -1.412377 1.1476783 4281629676
-0.20378397 -1.4122427 1.1476992 4281629676
-0.20378408 -1.4120728 1.1477555 4281629676
-0.20378418 -1.4119419 1.1477729 4281629676
-0.20378424 -1.411889 1.1477268 4281629676
-0.2037843 -1.411829 1.1476808 4281629676
-0.20378438 -1.4117193 1.1476841 4281629676
-0.20378448 -1.4115814 1.1477156 4281629676
-0.20378458 -1.4114293 1.1477542 4281629676
-0.20378467 -1.4113126 1.1477646 4281629676
-0.20378475 -1.4112278 1.1477432 4281629676
-0.20378482 -1.4111217 1.147743 4281629676
-0.20378491 -1.4110192 1.1477393 4281629676
-0.20378499 -1.4109061 1.1477391 4281629676
-0.20378509 -1.4107646 1.1477741 4281629676
-0.20378521 -1.4105842 1.1478339 4281629676
-0.20378529 -1.4104923 1.1478267 4281629676
-0.20378534 -1.4104288 1.1477841 4281629676
-0.20378542 -1.4103509 1.1477628 4281629676
-0.20378552 -1.4101989 1.1478013 4281629676
-0.2037856 -1.4101034 1.1477906 4281629676
-0.20378567 -1.4100293 1.1477586 4281629676
-0.20378573 -1.4099622 1.1477267 4281629676
-0.20378581 -1.4098915 1.1476911 4281629676
-0.20378588 -1.4097925 1.147691 4281629676
-0.20378599 -1.4096439 1.1477261 4281629676
-0.20378606 -1.4095485 1.1477152 4281629676
-0.20378613 -1.4094708 1.1476868 4281629676
-0.20378621 -1.4093717 1.1476796 4281629676
-0.2037863 -1.4092516 1.1476934 4281629676
-0.20378639 -1.4091349 1.1477038 4281629676
-0.20378648 -1.4089934 1.1477389 4281629676
-0.20378658 -1.4088696 1.1477493 4281629676
-0.20378664 -1.4087989 1.1477208 4281629676
-0.2037867 -1.4087354 1.1476854 4281629676
-0.20378679 -1.4086081 1.1476992 4281629676
-0.20378689 -1.4084702 1.1477308 4281629676
-0.20378695 -1.4083924 1.1477095 4281629676
-0.20378703 -1.4083182 1.1476775 4281629676
-0.20378712 -1.4081908 1.1476985 4281629676
-0.20378721 -1.4080635 1.1477194 4281629676
-0.2037873 -1.4079716 1.1477051 4281629676
-0.20378737 -1.4078763 1.1476943 4281629676
-0.20378746 -1.4077489 1.1477153 4281629676
-0.20378755 -1.4076109 1.1477468 4281629676
-0.20378761 -1.4075545 1.1477044 4281629676
-0.20378767 -1.4075156 1.1476442 4281629676
-0.20378774 -1.4074097 1.1476439 4281629676
-0.20378783 -1.4072894 1.1476579 4281629676
-0.20378794 -1.4071515 1.1476893 4281629676
-0.20378803 -1.4070348 1.1476998 4281629676
-0.20378809 -1.4069606 1.1476678 4281629676
-0.20378815 -1.4069041 1.1476253 4281629676
-0.20378821 -1.406844 1.1475862 4281629676
-0.2037883 -1.4067345 1.1475896 4281629676
-0.20378841 -1.4065328 1.1476775 4281629676
-0.2037885 -1.4064196 1.1476845 4281629676
-0.20378858 -1.4063348 1.1476701 4281629676
-0.20378867 -1.4061898 1.1477088 4281629676
-0.20378877 -1.4060625 1.1477298 4281629676
-0.20378882 -1.4060166 1.1476766 4281629676
-0.20378889 -1.4059565 1.1476305 4281629676
-0.20576748 -1.433179 1.1482134 4281629676
-0.20576762 -1.4329951 1.1482626 4281629676
-0.20576772 -1.4328573 1.1482729 4281629676
-0.2057678 -1.4327724 1.1482445 4281629676
-0.20576788 -1.4326628 1.1482407 4281629676
-0.20576797 -1.4325391 1.148237 4281629676
-0.20576806 -1.432433 1.1482297 4281629676
-0.20576817 -1.4323022 1.1482329 4281629676
-0.20576826 -1.4321713 1.1482433 4281629676
-0.20576835 -1.4320724 1.1482219 4281629676
-0.20576842 -1.431977 1.1482041 4281629676
-0.2057685 -1.4319135 1.1481615 4281629676
-0.2057686 -1.431772 1.1481754 4281629676
-0.20576873 -1.4315633 1.1482421 4281629676
-0.20576884 -1.4314147 1.1482631 4281629676
-0.20576893 -1.4313016 1.1482629 4281629676
-0.20576902 -1.4311956 1.1482486 4281629676
-0.20576909 -1.4311213 1.1482095 4281629676
-0.20576917 -1.4310508 1.1481739 4281629676
-0.20576924 -1.4309518 1.1481526 4281629676
-0.20576933 -1.4308351 1.1481488 4281629676
-0.20576946 -1.4306406 1.1482085 4281629676
-0.20576958 -1.4304743 1.1482471 4281629676
-0.20576966 -1.4303825 1.1482257 4281629676
-0.20576973 -1.4302906 1.1482043 4281629676
-0.20576984 -1.4301775 1.1481971 4281629676
-0.20576993 -1.4300466 1.1482074 4281629676
-0.20577005 -1.4298874 1.1482389 4281629676
-0.20577015 -1.429746 1.1482527 4281629676
-0.20577022 -1.4296364 1.148249 4281629676
-0.20577031 -1.4295338 1.1482311 4281629676
-0.2057704 -1.4294349 1.1482168 4281629676
-0.20577048 -1.429336 1.1481954 4281629676
-0.20577055 -1.4292618 1.1481634 4281629676
-0.20577063 -1.4291912 1.1481209 4281629676
-0.20577073 -1.4290568 1.1481347 4281629676
-0.20577082 -1.4289224 1.1481487 4281629676
-0.20577095 -1.4287385 1.1481978 4281629676
-0.20577104 -1.4286183 1.1481975 4281629676
-0.20577112 -1.4285264 1.1481762 4281629676
-0.20577119 -1.4284487 1.1481407 4281629676
-0.20577128 -1.4283497 1.1481264 4281629676
-0.20577139 -1.428187 1.1481614 4281629676
-0.20577151 -1.4280349 1.1481858 4281629676
-0.2057716 -1.4278934 1.1482067 4281629676
-0.2057717 -1.4277804 1.1481994 4281629676
-0.20577176 -1.4277133 1.1481605 4281629676
-0.20577182 -1.427671 1.1480967 4281629676
-0.20577189 -1.4275755 1.1480788 4281629676
-0.20577203 -1.4273773 1.1481421 4281629676
-0.20577213 -1.4272288 1.1481701 4281629676
-0.20577221 -1.427137 1.1481488 4281629676
-0.2057723 -1.4270415 1.1481237 4281629676
-0.20577237 -1.4269568 1.1481024 4281629676
-0.20577244 -1.4268719 1.1480739 4281629676
-0.20577253 -1.4267589 1.1480666 4281629676
-0.20577265 -1.4265926 1.1481053 4281629676
-0.20577277 -1.4264263 1.1481438 4281629676
-0.20577285 -1.4263309 1.148126 4281629676
-0.20577291 -1.426285 1.1480728 4281629676
-0.20577298 -1.4261861 1.1480585 4281629676
-0.20577312 -1.4259844 1.1481253 4281629676
-0.20577319 -1.4259138 1.1480827 4281629676
-0.20577326 -1.4258325 1.1480578 4281629676
-0.20577338 -1.425645 1.1481105 4281629676
-0.20577349 -1.4255036 1.1481315 4281629676
-0.20577358 -1.4254117 1.14811 4281629676
-0.20577364 -1.4253376 1.1480781 4281629676
-0.20577373 -1.4252208 1.1480743 4281629676
-0.20577383 -1.4250723 1.1481023 4281629676
-0.20577392 -1.4249662 1.148095 4281629676
-0.20577401 -1.4248673 1.1480807 4281629676
-0.20577408 -1.4247825 1.1480522 4281629676
-0.20577416 -1.4246906 1.1480309 4281629676
-0.20577425 -1.4245881 1.14802 4281629676
-0.20577435 -1.4244502 1.1480374 4281629676
-0.20577446 -1.4242874 1.1480725 4281629676
-0.20577455 -1.4241707 1.1480758 4281629676
-0.20577464 -1.4240648 1.1480685 4281629676
-0.20577472 -1.4239445 1.1480683 4281629676
-0.20577481 -1.4238349 1.1480646 4281629676
-0.20577489 -1.423743 1.1480432 4281629676
-0.20577498 -1.4236476 1.1480253 4281629676
-0.20577507 -1.4235239 1.1480356 4281629676
-0.20577516 -1.4234036 1.1480354 4281629676
-0.20577526 -1.4232622 1.1480564 4281629676
-0.20577535 -1.4231455 1.1480597 4281629676
-0.20577544 -1.42305 1.1480418 4281629676
-0.20577551 -1.4229617 1.148024 4281629676
-0.20577559 -1.4228592 1.1480132 4281629676
-0.20577569 -1.4227319 1.1480271 4281629676
-0.2057758 -1.4225833 1.1480551 4281629676
-0.20577587 -1.4224738 1.1480514 4281629676
-0.20577595 -1.4223996 1.1480193 4281629676
-0.20577605 -1.4222652 1.1480333 4281629676
-0.20577615 -1.4221166 1.1480613 4281629676
-0.20577624 -1.4219893 1.1480751 4281629676
-0.20577635 -1.4218266 1.1481173 4281629676
-0.20577642 -1.4217631 1.1480747 4281629676
-0.20577647 -1.4217314 1.1480075 4281629676
-0.20577654 -1.4216644 1.1479684 4281629676
-0.20577665 -1.4215122 1.148 4281629676
-0.20577675 -1.4213779 1.1480138 4281629676
-0.20577681 -1.4213036 1.1479819 4281629676
-0.2057769 -1.4212011 1.1479782 4281629676
-0.20577699 -1.4210738 1.147985 4281629676
-0.20577706 -1.420989 1.1479636 4281629676
-0.20577714 -1.4209077 1.1479387 4281629676
-0.20577724 -1.4207628 1.1479632 4281629676
-0.20577733 -1.4206425 1.14797 4281629676
-0.20577739 -1.420579 1.1479274 4281629676
-0.20577748 -1.4204658 1.1479273 4281629676
-0.2057776 -1.4203101 1.1479623 4281629676
-0.20577767 -1.4202006 1.1479657 4281629676
-0.20577776 -1.420091 1.1479619 4281629676
-0.20577787 -1.4199495 1.1479828 4281629676
-0.20577796 -1.4198258 1.1479932 4281629676
-0.20577803 -1.4197339 1.1479789 4281629676
-0.20577811 -1.4196562 1.1479504 4281629676
-0.20577818 -1.4195642 1.1479291 4281629676
-0.20577827 -1.4194547 1.1479324 4281629676
-0.20577836 -1.4193274 1.1479462 4281629676
-0.20577846 -1.4191823 1.1479707 4281629676
-0.20577855 -1.4190657 1.147974 4281629676
-0.20577863 -1.4190022 1.1479315 4281629676
-0.20577869 -1.4189491 1.1478854 4281629676
-0.20577878 -1.4188184 1.1479028 4281629676
-0.20577888 -1.4186733 1.1479273 4281629676
-0.20577897 -1.4185637 1.1479236 4281629676
-0.20577905 -1.4184648 1.1479163 4281629676
-0.20577914 -1.4183445 1.1479231 4281629676
-0.20577924 -1.4181995 1.1479547 4281629676
-0.20577934 -1.4180403 1.1479932 4281629676
-0.20577943 -1.4179271 1.1479931 4281629676
-0.20577949 -1.417892 1.1479293 4281629676
-0.20577957 -1.4177895 1.1479256 4281629676
-0.20577966 -1.4176869 1.1479148 4281629676
-0.20577975 -1.4175738 1.1479145 4281629676
-0.20577985 -1.4174145 1.1479602 4281629676
-0.20577991 -1.4173476 1.1479212 4281629676
-0.20577997 -1.4172981 1.1478716 4281629676
-0.20578006 -1.4171921 1.1478643 4281629676
-0.20578015 -1.4170541 1.1478888 4281629676
-0.20578024 -1.4169375 1.1478921 4281629676
-0.20578033 -1.4168208 1.1478955 4281629676
-0.20578042 -1.4167253 1.1478846 4281629676
-0.20578052 -1.4165732 1.1479232 4281629676
-0.20578061 -1.416453 1.1479301 4281629676
-0.20578068 -1.4163717 1.1479052 4281629676
-0.20578076 -1.4162904 1.1478803 4281629676
-0.20578085 -1.4161596 1.1478977 4281629676
-0.20578094 -1.4160429 1.1479011 4281629676
-0.20578101 -1.4159652 1.1478726 4281629676
-0.20578109 -1.4158769 1.1478547 4281629676
-0.20578121 -1.4156787 1.1479322 4281629676
-0.20578131 -1.415516 1.1479813 4281629676
-0.2057814 -1.415417 1.147967 4281629676
-0.20578146 -1.4153606 1.1479244 4281629676
-0.20578152 -1.4152969 1.1478819 4281629676
-0.20578159 -1.4152228 1.1478499 4281629676
-0.20578167 -1.4151309 1.1478356 4281629676
-0.20578177 -1.4149753 1.1478777 4281629676
-0.20578188 -1.4148372 1.1479023 4281629676
-0.20578195 -1.4147596 1.1478738 4281629676
-0.20578201 -1.4147031 1.1478242 4281629676
-0.20578212 -1.414551 1.1478628 4281629676
-0.20578222 -1.4143847 1.1479155 4281629676
-0.20578229 -1.4143106 1.1478835 4281629676
-0.20578234 -1.4142683 1.1478269 4281629676
-0.20578243 -1.4141763 1.1478126 4281629676
-0.20578252 -1.4140278 1.1478477 4281629676
-0.20578262 -1.4138969 1.1478651 4281629676
-0.2057827 -1.413805 1.1478508 4281629676
-0.20578277 -1.4137131 1.1478364 4281629676
-0.20578286 -1.4136106 1.1478326 4281629676
-0.20578295 -1.4134974 1.1478325 4281629676
-0.20578302 -1.4134127 1.1478111 4281629676
-0.20578308 -1.4133314 1.1477861 4281629676
-0.20578319 -1.4132005 1.1478107 4281629676
-0.20578329 -1.4130448 1.1478528 4281629676
-0.20578338 -1.4129317 1.1478525 4281629676
-0.20578346 -1.4128327 1.1478453 4281629676
-0.20578356 -1.4126878 1.1478769 4281629676
-0.20578364 -1.4125887 1.1478696 4281629676
-0.20578371 -1.4125004 1.1478517 4281629676
-0.20578378 -1.4124014 1.1478444 4281629676
-0.20578387 -1.4123025 1.1478372 4281629676
-0.20578395 -1.412207 1.1478264 4281629676
-0.20578402 -1.4121115 1.1478157 4281629676
-0.20578411 -1.4120055 1.1478155 4281629676
-0.20578419 -1.411903 1.1478117 4281629676
-0.20578426 -1.4118323 1.1477762 4281629676
-0.20578434 -1.4117298 1.1477724 4281629676
-0.20578444 -1.4115955 1.1477934 4281629676
-0.20578453 -1.4114681 1.1478144 4281629676
-0.20578459 -1.4114116 1.1477718 4281629676
-0.20578466 -1.4113233 1.147754 4281629676
-0.20578477 -1.4111712 1.1477926 4281629676
-0.20578484 -1.4110863 1.1477712 4281629676
-0.20578492 -1.410991 1.1477604 4281629676
-0.20578502 -1.4108353 1.1478026 4281629676
-0.20578511 -1.4107115 1.14782 4281629676
-0.20578519 -1.4106479 1.1477774 4281629676
-0.20578524 -1.4105773 1.1477491 4281629676
-0.20578533 -1.4104534 1.1477665 4281629676
-0.20578544 -1.4103085 1.1477981 4281629676
-0.20578551 -1.410206 1.1477942 4281629676
-0.2057856 -1.4100928 1.1478012 4281629676
-0.20578569 -1.4099797 1.147808 4281629676
-0.20578577 -1.4098878 1.1477937 4281629676
-0.20578584 -1.4097995 1.1477758 4281629676
-0.20578592 -1.4097182 1.1477509 4281629676
-0.20578599 -1.4096191 1.1477437 4281629676
-0.20578608 -1.4094918 1.1477647 4281629676
-0.20578617 -1.4093645 1.1477855 4281629676
-0.20578624 -1.4093045 1.1477466 4281629676
-0.20578633 -1.4091772 1.1477605 4281629676
-0.20578642 -1.4090605 1.1477709 4281629676
-0.2057865 -1.4089615 1.1477636 4281629676
-0.20578659 -1.4088554 1.1477634 4281629676
-0.20578668 -1.4087317 1.1477808 4281629676
-0.20578675 -1.4086362 1.14777 4281629676
-0.20578681 -1.4085585 1.1477487 4281629676
-0.20578688 -1.4084843 1.1477168 4281629676
-0.20578696 -1.4084065 1.1476953 4281629676
-0.20578703 -1.408304 1.1476916 4281629676
-0.20578714 -1.4081626 1.1477267 4281629676
-0.20578724 -1.4080105 1.1477653 4281629676
-0.20578732 -1.4078972 1.1477722 4281629676
-0.20578739 -1.4078125 1.1477507 4281629676
-0.20578745 -1.4077666 1.1476977 4281629676
-0.20578751 -1.407703 1.1476622 4281629676
-0.2057876 -1.4075793 1.1476796 4281629676
-0.20578769 -1.407452 1.1477005 4281629676
-0.20578778 -1.4073635 1.1476828 4281629676
-0.20578785 -1.4072716 1.1476755 4281629676
-0.20578794 -1.4071267 1.147707 4281629676
-0.20578805 -1.4069852 1.1477422 4281629676
-0.20578812 -1.4068862 1.1477349 4281629676
-0.2057882 -1.4067943 1.1477276 4281629676
-0.20578828 -1.4066706 1.147745 4281629676
-0.20578837 -1.4065609 1.1477484 4281629676
-0.20578843 -1.4064938 1.1477164 4281629676
-0.20578851 -1.4064196 1.1476845 4281629676
-0.20578858 -1.4063348 1.1476701 4281629676
-0.20578867 -1.406211 1.1476876 4281629676
-0.20776723 -1.4335008 1.1482458 4281629676
-0.20776732 -1.4333806 1.1482456 4281629676
-0.20776743 -1.4332213 1.1482772 4281629676
-0.20776753 -1.43308 1.148291 4281629676
-0.20776759 -1.4330447 1.1482273 4281629676
-0.2077677 -1.4328891 1.1482482 4281629676
-0.20776781 -1.4327193 1.1482903 4281629676
-0.20776787 -1.432677 1.1482266 4281629676
-0.20776792 -1.4326559 1.1481488 4281629676
-0.20776805 -1.4324684 1.1482015 4281629676
-0.20776817 -1.4322916 1.1482435 4281629676
-0.20776825 -1.4322033 1.1482186 4281629676
-0.20776832 -1.4321291 1.1481795 4281629676
-0.2077684 -1.4320549 1.1481405 4281629676
-0.20776848 -1.4319276 1.1481473 4281629676
-0.2077686 -1.4317472 1.148193 4281629676
-0.20776869 -1.4316553 1.1481715 4281629676
-0.20776878 -1.4315457 1.1481608 4281629676
-0.20776886 -1.4314538 1.1481394 4281629676
-0.20776893 -1.431362 1.148118 4281629676
-0.20776904 -1.4312347 1.1481178 4281629676
-0.20776916 -1.431072 1.1481528 4281629676
-0.20776926 -1.4309164 1.1481807 4281629676
-0.20776933 -1.4308245 1.1481594 4281629676
-0.20776942 -1.4307256 1.1481451 4281629676
-0.20776951 -1.4306089 1.1481413 4281629676
-0.20776959 -1.4305205 1.1481164 4281629676
-0.20776968 -1.430418 1.1480985 4281629676
-0.20776981 -1.4302058 1.1481758 4281629676
-0.20776993 -1.4300431 1.1482109 4281629676
-0.20777 -1.4299724 1.1481683 4281629676
-0.20777009 -1.4298593 1.1481611 4281629676
-0.2077702 -1.4297107 1.1481891 4281629676
-0.20777029 -1.4295834 1.1481959 4281629676
-0.20777039 -1.4294597 1.1481992 4281629676
-0.20777047 -1.4293607 1.1481777 4281629676
-0.20777054 -1.4292972 1.1481352 4281629676
-0.20777062 -1.4292125 1.1481068 4281629676
-0.20777072 -1.4290709 1.1481206 4281629676
-0.20777081 -1.4289436 1.1481274 4281629676
-0.20777091 -1.4288163 1.1481344 4281629676
-0.207771 -1.4286891 1.1481411 4281629676
-0.20777109 -1.4286042 1.1481127 4281629676
-0.20777118 -1.4284663 1.1481301 4281629676
-0.20777129 -1.4283391 1.1481369 4281629676
-0.20777135 -1.4282755 1.1480873 4281629676
-0.20777144 -1.4281659 1.1480836 4281629676
-0.20777154 -1.4280316 1.1480974 4281629676
-0.20777164 -1.427883 1.1481184 4281629676
-0.20777173 -1.4277593 1.1481216 4281629676
-0.20777184 -1.427639 1.1481214 4281629676
-0.20777194 -1.4274728 1.14816 4281629676
-0.20777205 -1.4273349 1.1481774 4281629676
-0.20777212 -1.4272536 1.1481454 4281629676
-0.20777221 -1.4271547 1.1481311 4281629676
-0.20777231 -1.4270027 1.1481556 4281629676
-0.20777237 -1.426939 1.148113 4281629676
-0.20777245 -1.4268755 1.1480705 4281629676
-0.20777255 -1.4267199 1.1480985 4281629676
-0.20777263 -1.426635 1.148077 4281629676
-0.20777273 -1.4265043 1.1480803 4281629676
-0.20777282 -1.4264017 1.1480695 4281629676
-0.20777288 -1.4263418 1.1480235 4281629676
-0.20777297 -1.4262215 1.1480232 4281629676
-0.20777307 -1.426073 1.1480513 4281629676
-0.20777319 -1.4259208 1.1480757 4281629676
-0.20777328 -1.4257935 1.1480895 4281629676
-0.20777336 -1.4257017 1.1480682 4281629676
-0.20777345 -1.4256027 1.1480539 4281629676
-0.20777352 -1.4255215 1.1480218 4281629676
-0.20777361 -1.4253978 1.1480252 4281629676
-0.20777372 -1.4252563 1.1480461 4281629676
-0.20777379 -1.4251609 1.1480283 4281629676
-0.20777391 -1.4250052 1.1480633 4281629676
-0.20777403 -1.4248177 1.148116 4281629676
-0.20777412 -1.4247152 1.1481051 4281629676
-0.20777419 -1.4246126 1.1480943 4281629676
-0.20777428 -1.4245279 1.1480659 4281629676
-0.20777434 -1.4244537 1.148034 4281629676
-0.20777443 -1.4243582 1.1480161 4281629676
-0.20777452 -1.4242311 1.1480229 4281629676
-0.20777461 -1.4241037 1.1480368 4281629676
-0.20777471 -1.4239728 1.1480472 4281629676
-0.20777482 -1.4238313 1.1480681 4281629676
-0.20777492 -1.42369 1.1480891 4281629676
-0.20777503 -1.4235449 1.1481135 4281629676
-0.20777509 -1.4234707 1.1480745 4281629676
-0.20777516 -1.4234108 1.1480284 4281629676
-0.20777526 -1.4232587 1.14806 4281629676
-0.20777535 -1.4231561 1.1480491 4281629676
-0.20777541 -1.4230926 1.1480066 4281629676
-0.2077755 -1.4229865 1.1479993 4281629676
-0.20777559 -1.4228628 1.1480097 4281629676
-0.20777568 -1.422739 1.14802 4281629676
-0.20777577 -1.4226259 1.1480198 4281629676
-0.20777586 -1.4224986 1.1480266 4281629676
-0.20777595 -1.4224031 1.1480159 4281629676
-0.20777604 -1.4222829 1.1480156 4281629676
-0.20777613 -1.4221662 1.148019 4281629676
-0.20777622 -1.4220531 1.1480187 4281629676
-0.20777629 -1.4219648 1.1480008 4281629676
-0.20777635 -1.4219189 1.1479406 4281629676
-0.20777643 -1.421827 1.1479263 4281629676
-0.20777653 -1.421675 1.1479579 4281629676
-0.20777662 -1.4215618 1.1479577 4281629676
-0.20777668 -1.4215053 1.1479081 4281629676
-0.20777676 -1.4214382 1.147869 4281629676
-0.20777686 -1.4212967 1.147897 4281629676
-0.20777696 -1.421134 1.1479391 4281629676
-0.20777707 -1.4209961 1.1479565 4281629676
-0.20777716 -1.4208829 1.1479564 4281629676
