# .PCD v0.7 - Point Cloud Data file format
VERSION 0.7
FIELDS x y z rgb
SIZE 4 4 4 4
TYPE F F F U
COUNT 1 1 1 1
WIDTH 1095
HEIGHT 1
VIEWPOINT 0 0 0 1 0 0 0
POINTS 1095
DATA ascii
-0.13380863 -1.4065559 1.0954719 4294131242
-0.13380869 -1.4065065 1.095401 4294131242
-0.13380878 -1.4064004 1.0954008 4294131242
-0.13380882 -1.4064183 1.0952559 4294131242
-0.13380885 -1.4064577 1.0950828 4294131242
-0.13380893 -1.4064189 1.0949943 4294131242
-0.13380897 -1.4064192 1.094867 4294131242
-0.133809 -1.4064548 1.0946974 4294131242
-0.13380904 -1.4064692 1.094556 4294131242
-0.13380909 -1.4065084 1.0943757 4294131242
-0.13380912 -1.4065584 1.0941849 4294131242
-0.13380919 -1.4065161 1.094107 4294131242
-0.13380925 -1.4064809 1.0940222 4294131242
-0.13380957 -1.4064327 1.0933079 4294131242
-0.13380973 -1.406533 1.0926716 4294131242
-0.1338098 -1.4064517 1.0926397 4294131242
-0.13380985 -1.4064767 1.0924807 4294131242
-0.13381003 -1.406396 1.0921941 4294131242
-0.13381007 -1.4063963 1.0920597 4294131242
-0.1338101 -1.4064391 1.0918831 4294131242
-0.13381016 -1.4064323 1.0917557 4294131242
-0.13381022 -1.4064077 1.0916603 4294131242
-0.13381028 -1.4064008 1.0915329 4294131242
-0.13381033 -1.406394 1.0914128 4294131242
-0.13381039 -1.4063765 1.0913101 4294131242
-0.13381085 -1.4063611 1.0901469 4294131242
-0.13381088 -1.4064039 1.0899632 4294131242
-0.13381092 -1.4064041 1.0898359 4294131242
-0.13381098 -1.4064256 1.0896733 4294131242
-0.13381103 -1.4064118 1.0895602 4294131242
-0.13381107 -1.4064474 1.0893835 4294131242
-0.13381115 -1.4063625 1.089362 4294131242
-0.13381122 -1.4062955 1.0893089 4294131242
-0.13381137 -1.4062998 1.0889164 4294131242
-0.13381138 -1.4065945 1.0882771 4294131242
-0.13381144 -1.4065558 1.0881957 4294131242
-0.13381155 -1.4063859 1.0882732 4294131242
-0.13381162 -1.4063153 1.0882306 4294131242
-0.13381168 -1.4062694 1.0881562 4294131242
-0.13381173 -1.4063264 1.0879513 4294131242
-0.13381216 -1.4062363 1.0870106 4294131242
-0.1338122 -1.4062437 1.0868622 4294131242
-0.13381255 -1.4063022 1.0858653 4294131242
-0.13381262 -1.4062173 1.0858369 4294131242
-0.13381268 -1.4061822 1.0857449 4294131242
-0.13381273 -1.4062285 1.0855576 4294131242
-0.13381277 -1.4062713 1.0853667 4294131242
-0.13381325 -1.4062276 1.0842175 4294131242
-0.13381335 -1.4062175 1.0839595 4294131242
-0.1338134 -1.4062177 1.0838321 4294131242
-0.13381349 -1.4061116 1.083832 4294131242
-0.1338136 -1.4062294 1.0832771 4294131242
-0.13381366 -1.406212 1.0831604 4294131242
-0.13381393 -1.4061707 1.0825381 4294131242
-0.13381401 -1.4061391 1.0824425 4294131242
-0.13381496 -1.4061013 1.0800453 4294131242
-0.13381499 -1.4061866 1.0797981 4294131242
-0.13381505 -1.4061692 1.0796884 4294131242
-0.13381511 -1.4061304 1.0796 4294131242
-0.13381936 -1.4058074 1.0692791 4294131242
-0.13382064 -1.4057038 1.0661994 4294131242
-0.13382071 -1.4055871 1.0662169 4294131242
-0.13382161 -1.4054673 1.0641555 4294131242
-0.13579395 -1.4052117 1.1360502 4294131242
-0.13579397 -1.4052579 1.1359053 4294131242
-0.13579397 -1.4053644 1.1357005 4294131242
-0.13579397 -1.405478 1.1354885 4294131242
-0.13579404 -1.4061882 1.1338636 4294131242
-0.1357941 -1.4061282 1.1338174 4294131242
-0.13579415 -1.406132 1.1337079 4294131242
-0.13579418 -1.4061251 1.133616 4294131242
-0.13579422 -1.4061395 1.1334958 4294131242
-0.13579425 -1.4061608 1.1333756 4294131242
-0.1357943 -1.4061611 1.1332695 4294131242
-0.13579433 -1.406179 1.1331458 4294131242
-0.13579434 -1.4062288 1.1329974 4294131242
-0.13579437 -1.4062467 1.1328738 4294131242
-0.1357944 -1.4062787 1.132743 4294131242
-0.13579445 -1.406279 1.1326369 4294131242
-0.13579446 -1.4063252 1.1324849 4294131242
-0.13579451 -1.4063431 1.1323613 4294131242
-0.13579457 -1.4062867 1.1323187 4294131242
-0.13579461 -1.4062585 1.1322409 4294131242
-0.13579464 -1.4062907 1.1321101 4294131242
-0.13579468 -1.4062943 1.1320006 4294131242
-0.13579473 -1.4062662 1.1319227 4294131242
-0.13579477 -1.4062629 1.1318202 4294131242
-0.1357948 -1.4062879 1.1316894 4294131242
-0.13579483 -1.4063058 1.1315727 4294131242
-0.13579488 -1.4062989 1.1314738 4294131242
-0.13579494 -1.4062566 1.13141 4294131242
-0.135795 -1.406225 1.1313357 4294131242
-0.13579503 -1.4062428 1.131219 4294131242
-0.13579506 -1.4062537 1.1311024 4294131242
-0.13579507 -1.406307 1.1309434 4294131242
-0.13579512 -1.4063107 1.1308339 4294131242
-0.13579518 -1.4062791 1.1307595 4294131242
-0.13579521 -1.4062722 1.1306676 4294131242
-0.13579524 -1.4063042 1.1305298 4294131242
-0.13579528 -1.4063151 1.1304132 4294131242
-0.13579531 -1.4063365 1.1302859 4294131242
-0.13579534 -1.406365 1.1301516 4294131242
-0.13579538 -1.4063724 1.1300385 4294131242
-0.13579543 -1.4063407 1.1299641 4294131242
-0.13579549 -1.4062948 1.1299039 4294131242
-0.13579553 -1.4062738 1.129819 4294131242
-0.13579558 -1.4062846 1.1297095 4294131242
-0.13579562 -1.4062672 1.129621 4294131242
-0.13579567 -1.4062673 1.1295151 4294131242
-0.13579568 -1.4063065 1.1293701 4294131242
-0.13579571 -1.406335 1.1292359 4294131242
-0.13579576 -1.4063246 1.1291404 4294131242
-0.13579582 -1.4063001 1.129059 4294131242
-0.13579585 -1.4063144 1.1289388 4294131242
-0.13579588 -1.4063324 1.1288151 4294131242
-0.13579592 -1.4063573 1.1286843 4294131242
-0.13579597 -1.4063327 1.128603 4294131242
-0.13579601 -1.4063116 1.1285181 4294131242
-0.13579604 -1.4063615 1.1283627 4294131242
-0.13579609 -1.4063617 1.1282494 4294131242
-0.13579611 -1.406376 1.1281292 4294131242
-0.13579616 -1.4063834 1.1280161 4294131242
-0.1357962 -1.4063729 1.1279206 4294131242
-0.13579623 -1.4063802 1.1278075 4294131242
-0.13579628 -1.4063804 1.1277015 4294131242
-0.13579632 -1.4063487 1.1276271 4294131242
-0.13579637 -1.4063631 1.127507 4294131242
-0.1357964 -1.4064094 1.1273479 4294131242
-0.1357964 -1.406484 1.1271678 4294131242
-0.13579643 -1.4065267 1.1270124 4294131242
-0.1357965 -1.4064455 1.1269945 4294131242
-0.13579656 -1.4063784 1.1269555 4294131242
-0.13579659 -1.4064387 1.1267895 4294131242
-0.13579659 -1.4065311 1.1265845 4294131242
-0.13579667 -1.4064498 1.1265596 4294131242
-0.13579674 -1.4063544 1.1265489 4294131242
-0.1357968 -1.4063085 1.1264887 4294131242
-0.13579684 -1.4062982 1.1263932 4294131242
-0.13579687 -1.4063231 1.1262624 4294131242
-0.1357969 -1.4063729 1.1260998 4294131242
-0.13579692 -1.4064369 1.1259303 4294131242
-0.13579698 -1.4063946 1.1258665 4294131242
-0.13579702 -1.4063841 1.125771 4294131242
-0.13579704 -1.4064517 1.1255909 4294131242
-0.13579708 -1.4064661 1.1254636 4294131242
-0.13579711 -1.4064804 1.1253434 4294131242
-0.13579714 -1.4065338 1.1251774 4294131242
-0.13579723 -1.4066018 1.1247851 4294131242
-0.13579728 -1.4066091 1.1246649 4294131242
-0.13579732 -1.406588 1.12458 4294131242
-0.13579738 -1.4065634 1.1244986 4294131242
-0.13579741 -1.4065671 1.1243891 4294131242
-0.13579747 -1.4065213 1.1243218 4294131242
-0.13579753 -1.4064826 1.1242546 4294131242
-0.13579758 -1.4064898 1.1241415 4294131242
-0.13579762 -1.4064687 1.1240566 4294131242
-0.13579763 -1.4065576 1.1238481 4294131242
-0.13579768 -1.4065578 1.123742 4294131242
-0.13579772 -1.4065155 1.1236783 4294131242
-0.13579778 -1.4064803 1.1236005 4294131242
-0.13579781 -1.4065372 1.1234379 4294131242
-0.13579781 -1.406626 1.1232365 4294131242
-0.13579784 -1.4066545 1.1230952 4294131242
-0.13579789 -1.4066547 1.122982 4294131242
-0.13579793 -1.4066656 1.1228654 4294131242
-0.13579799 -1.4066197 1.1227982 4294131242
-0.13579814 -1.4065636 1.1225294 4294131242
-0.13579819 -1.4066775 1.1221901 4294131242
-0.13579826 -1.4065892 1.1221724 4294131242
-0.13579831 -1.4065928 1.1220556 4294131242
-0.13579832 -1.4066427 1.121893 4294131242
-0.13579835 -1.4066713 1.1217518 4294131242
-0.13579839 -1.4066927 1.1216245 4294131242
-0.13579844 -1.4066894 1.1215149 4294131242
-0.13579848 -1.4066613 1.1214299 4294131242
-0.13579854 -1.4066437 1.1213416 4294131242
-0.13579857 -1.4066546 1.1212178 4294131242
-0.1357986 -1.4066902 1.1210694 4294131242
-0.13579863 -1.4067259 1.120921 4294131242
-0.13579866 -1.4067615 1.1207726 4294131242
-0.13579869 -1.40679 1.1206312 4294131242
-0.13579877 -1.406723 1.1205921 4294131242
-0.13579883 -1.4066701 1.1205391 4294131242
-0.13579887 -1.4066668 1.1204294 4294131242
-0.1357989 -1.4067059 1.1202775 4294131242
-0.13579896 -1.4066459 1.1202314 4294131242
-0.13579902 -1.4066072 1.1201571 4294131242
-0.13579908 -1.4065861 1.1200722 4294131242
-0.13579911 -1.4066217 1.1199237 4294131242
-0.13579912 -1.4067035 1.1197224 4294131242
-0.13579914 -1.4067426 1.1195705 4294131242
-0.13579917 -1.4067854 1.1194079 4294131242
-0.13579921 -1.4067997 1.1192877 4294131242
-0.13579924 -1.4068354 1.1191323 4294131242
-0.1357993 -1.4067719 1.1190897 4294131242
-0.13579938 -1.4067048 1.1190506 4294131242
-0.13579942 -1.4067085 1.118934 4294131242
-0.13579944 -1.4067655 1.1187644 4294131242
-0.1357995 -1.4067231 1.1186936 4294131242
-0.13579956 -1.4066844 1.1186264 4294131242
-0.1357996 -1.4066951 1.1185026 4294131242
-0.13579963 -1.406706 1.1183789 4294131242
-0.13579968 -1.4067062 1.1182657 4294131242
-0.13579974 -1.4066852 1.1181738 4294131242
-0.13579977 -1.4067138 1.1180253 4294131242
-0.13579981 -1.4067211 1.1179051 4294131242
-0.13579983 -1.4067744 1.1177391 4294131242
-0.1357999 -1.4067215 1.1176859 4294131242
-0.13579994 -1.4067041 1.1175904 4294131242
-0.13579997 -1.4067361 1.1174386 4294131242
-0.13580002 -1.406754 1.1173078 4294131242
-0.13580005 -1.4067826 1.1171664 4294131242
-0.13580011 -1.4067475 1.1170886 4294131242
-0.13580015 -1.406737 1.1169859 4294131242
-0.1358002 -1.4067478 1.1168622 4294131242
-0.13580024 -1.4067446 1.1167526 4294131242
-0.13580027 -1.4067483 1.1166359 4294131242
-0.1358003 -1.406791 1.1164805 4294131242
-0.13580036 -1.4067522 1.1164062 4294131242
-0.13580044 -1.4066817 1.1163707 4294131242
-0.13580048 -1.4066819 1.1162575 4294131242
-0.1358005 -1.4067352 1.1160843 4294131242
-0.13580054 -1.4067744 1.1159253 4294131242
-0.13580057 -1.4067888 1.1157981 4294131242
-0.13580063 -1.4067571 1.1157167 4294131242
-0.13580067 -1.4067538 1.1156071 4294131242
-0.13580072 -1.4067398 1.1155081 4294131242
-0.13580078 -1.4067011 1.1154408 4294131242
-0.13580084 -1.4066765 1.1153524 4294131242
-0.13580085 -1.4067228 1.1151863 4294131242
-0.1358009 -1.4067514 1.1150379 4294131242
-0.13580091 -1.4068224 1.1148471 4294131242
-0.13580096 -1.4068439 1.1147057 4294131242
-0.13580102 -1.4067804 1.1146632 4294131242
-0.13580108 -1.4067346 1.1145959 4294131242
-0.13580111 -1.4067702 1.1144475 4294131242
-0.13580118 -1.4067137 1.1143909 4294131242
-0.13580124 -1.4066502 1.1143483 4294131242
-0.13580127 -1.4066858 1.1141927 4294131242
-0.13580129 -1.406764 1.1139879 4294131242
-0.13580135 -1.4067429 1.1139029 4294131242
-0.1358014 -1.4067113 1.1138216 4294131242
-0.13580145 -1.4066902 1.1137296 4294131242
-0.13580149 -1.4067082 1.1135918 4294131242
-0.13580151 -1.4067723 1.1134081 4294131242
-0.13580155 -1.4067583 1.113309 4294131242
-0.13580161 -1.4067372 1.1132171 4294131242
-0.13580166 -1.4067339 1.1131004 4294131242
-0.1358017 -1.4067305 1.1129907 4294131242
-0.13580175 -1.4067379 1.1128635 4294131242
-0.13580181 -1.4067098 1.1127787 4294131242
-0.13580184 -1.4067171 1.1126584 4294131242
-0.13580203 -1.4068139 1.1119691 4294131242
-0.13580211 -1.4067539 1.1119231 4294131242
-0.13580216 -1.4067186 1.1118453 4294131242
-0.13580221 -1.4066941 1.1117498 4294131242
-0.13580225 -1.4067014 1.1116296 4294131242
-0.1358023 -1.406691 1.111527 4294131242
-0.13580233 -1.406755 1.1113362 4294131242
-0.13580237 -1.4067624 1.1112159 4294131242
-0.13580242 -1.4067378 1.1111205 4294131242
-0.13580248 -1.4067237 1.1110215 4294131242
-0.13580254 -1.4066886 1.1109436 4294131242
-0.13580255 -1.4067703 1.1107352 4294131242
-0.1358026 -1.4067812 1.1106044 4294131242
-0.13580264 -1.4067495 1.110523 4294131242
-0.13580269 -1.4067533 1.1103992 4294131242
-0.13580275 -1.4067322 1.1103073 4294131242
-0.13580281 -1.4066864 1.1102401 4294131242
-0.13580287 -1.4066513 1.1101621 4294131242
-0.13580291 -1.4066443 1.1100562 4294131242
-0.13580291 -1.4067827 1.1097841 4294131242
-0.13580295 -1.4067582 1.1096957 4294131242
-0.13580303 -1.4066805 1.1096601 4294131242
-0.1358031 -1.4066098 1.1096247 4294131242
-0.13580315 -1.4066206 1.109494 4294131242
-0.13580313 -1.4067732 1.1092079 4294131242
-0.13580315 -1.406855 1.1089994 4294131242
-0.13580322 -1.4067985 1.1089427 4294131242
-0.13580328 -1.4067669 1.1088613 4294131242
-0.13580331 -1.406799 1.1087023 4294131242
-0.13580336 -1.4067886 1.1085998 4294131242
-0.13580342 -1.4067534 1.1085219 4294131242
-0.13580348 -1.4067287 1.1084335 4294131242
-0.13580351 -1.4067538 1.1082885 4294131242
-0.13580354 -1.406793 1.1081225 4294131242
-0.13580361 -1.4067472 1.1080552 4294131242
-0.13580364 -1.4067687 1.1079139 4294131242
-0.13580368 -1.4067689 1.1077936 4294131242
-0.13580373 -1.4067762 1.1076664 4294131242
-0.13580376 -1.4068118 1.1075108 4294131242
-0.13580383 -1.4067448 1.1074648 4294131242
-0.13580389 -1.4066848 1.1074187 4294131242
-0.13580395 -1.4066602 1.1073232 4294131242
-0.13580397 -1.4067384 1.1071182 4294131242
-0.13580403 -1.4067103 1.1070263 4294131242
-0.13580407 -1.4067177 1.106899 4294131242
-0.1358041 -1.4067675 1.1067294 4294131242
-0.13580416 -1.40675 1.1066269 4294131242
-0.13580421 -1.4067466 1.1065102 4294131242
-0.13580424 -1.4067646 1.1063724 4294131242
-0.1358043 -1.4067577 1.1062591 4294131242
-0.13580436 -1.4067155 1.1061884 4294131242
-0.1358044 -1.4067086 1.1060823 4294131242
-0.13580446 -1.4066734 1.1059973 4294131242
-0.1358045 -1.4066665 1.1058842 4294131242
-0.13580453 -1.4067377 1.1056864 4294131242
-0.13580458 -1.4067131 1.1055908 4294131242
-0.13580462 -1.4067346 1.1054494 4294131242
-0.13580467 -1.4067242 1.1053399 4294131242
-0.13580471 -1.4067492 1.1051949 4294131242
-0.13580476 -1.4067601 1.1050571 4294131242
-0.13580485 -1.4066256 1.1050922 4294131242
-0.13580506 -1.4066976 1.1044065 4294131242
-0.1358051 -1.4066873 1.1043038 4294131242
-0.13580513 -1.4067301 1.1041342 4294131242
-0.13580519 -1.4067197 1.1040176 4294131242
-0.13580531 -1.4066492 1.1038618 4294131242
-0.13580534 -1.4066743 1.1037099 4294131242
-0.13580538 -1.4066781 1.1035862 4294131242
-0.13580541 -1.4067669 1.1033636 4294131242
-0.13580547 -1.4067281 1.1032822 4294131242
-0.13580553 -1.4066858 1.1032114 4294131242
-0.13580556 -1.4067038 1.1030736 4294131242
-0.13580562 -1.4066969 1.1029533 4294131242
-0.1358057 -1.4066122 1.102932 4294131242
-0.13580574 -1.406623 1.1027941 4294131242
-0.13580579 -1.4066268 1.1026703 4294131242
-0.13580583 -1.4066163 1.1025608 4294131242
-0.13580588 -1.4066521 1.1023911 4294131242
-0.13580589 -1.4067373 1.102165 4294131242
-0.13580596 -1.4066809 1.1021082 4294131242
-0.13580598 -1.406745 1.1019105 4294131242
-0.13580604 -1.4067097 1.1018326 4294131242
-0.1358061 -1.4066958 1.1017265 4294131242
-0.13580622 -1.4066218 1.1015601 4294131242
-0.13580623 -1.4067426 1.1012917 4294131242
-0.13580626 -1.4067712 1.1011362 4294131242
-0.13580632 -1.406736 1.1010584 4294131242
-0.13580637 -1.4067397 1.1009275 4294131242
-0.13580644 -1.4066691 1.1008849 4294131242
-0.13580653 -1.4065595 1.1008954 4294131242
-0.13580659 -1.4065173 1.1008174 4294131242
-0.13580664 -1.4066843 1.1003689 4294131242
-0.13580678 -1.406678 1.1000011 4294131242
-0.13580684 -1.4066215 1.0999445 4294131242
-0.1358069 -1.4065756 1.0998771 4294131242
-0.13580696 -1.4065404 1.0997922 4294131242
-0.13580702 -1.4065158 1.0996968 4294131242
-0.13580708 -1.4064913 1.0996013 4294131242
-0.13580714 -1.4064597 1.0995128 4294131242
-0.13580719 -1.406467 1.0993785 4294131242
-0.13580722 -1.4065098 1.0992018 4294131242
-0.13580725 -1.4065702 1.0990074 4294131242
-0.13580729 -1.406574 1.0988766 4294131242
-0.13580732 -1.4066558 1.098647 4294131242
-0.13580741 -1.4066705 1.0983783 4294131242
-0.13580747 -1.4066353 1.0982933 4294131242
-0.13580751 -1.4066497 1.0981519 4294131242
-0.13580757 -1.4066038 1.0980847 4294131242
-0.13580763 -1.4066006 1.0979609 4294131242
-0.13580766 -1.4066575 1.0977631 4294131242
-0.13580771 -1.406679 1.0976146 4294131242
-0.13580777 -1.4066119 1.0975685 4294131242
-0.13580781 -1.4066157 1.0974377 4294131242
-0.13580786 -1.4066372 1.0972822 4294131242
-0.13580793 -1.4065559 1.0972573 4294131242
-0.13580802 -1.4065847 1.0969675 4294131242
-0.13580811 -1.406461 1.0969919 4294131242
-0.13580818 -1.4064116 1.0969211 4294131242
-0.13580821 -1.4064295 1.0967762 4294131242
-0.13580821 -1.4066283 1.0964018 4294131242
-0.13580827 -1.4065613 1.0963628 4294131242
-0.13580839 -1.4065369 1.096133 4294131242
-0.13580844 -1.4065158 1.0960339 4294131242
-0.1358085 -1.4064842 1.0959384 4294131242
-0.13580856 -1.4064809 1.0958217 4294131242
-0.1358086 -1.4064635 1.0957121 4294131242
-0.13580868 -1.406414 1.0956413 4294131242
-0.13580874 -1.4063647 1.0955775 4294131242
-0.13580877 -1.4064358 1.0953655 4294131242
-0.13580881 -1.4064397 1.0952277 4294131242
-0.13580887 -1.4064293 1.095111 4294131242
-0.13580893 -1.4063834 1.0950437 4294131242
-0.13580897 -1.4063908 1.0949023 4294131242
-0.135809 -1.4064406 1.0947186 4294131242
-0.13580906 -1.4064373 1.0945948 4294131242
-0.13580912 -1.4064093 1.0944958 4294131242
-0.13580918 -1.4063741 1.0944108 4294131242
-0.13580926 -1.4065981 1.0937501 4294131242
-0.1358093 -1.4066479 1.0935593 4294131242
-0.13580938 -1.4065242 1.0935838 4294131242
-0.13580945 -1.4064783 1.0935094 4294131242
-0.13580965 -1.4064934 1.0929792 4294131242
-0.1358097 -1.4064618 1.0928907 4294131242
-0.13580976 -1.4064443 1.0927811 4294131242
-0.13580982 -1.4064021 1.0927032 4294131242
-0.13580987 -1.4063953 1.0925829 4294131242
-0.13580994 -1.4063282 1.0925369 4294131242
-0.13581 -1.406293 1.0924519 4294131242
-0.13581005 -1.4063323 1.0922717 4294131242
-0.13581014 -1.4061908 1.0923139 4294131242
-0.13581043 -1.4065223 1.0908614 4294131242
-0.13581049 -1.4065226 1.0907341 4294131242
-0.13581054 -1.4065051 1.0906246 4294131242
-0.13581061 -1.406438 1.0905784 4294131242
-0.1358107 -1.4063143 1.0906029 4294131242
-0.13581105 -1.4063692 1.0896167 4294131242
-0.13581111 -1.4063057 1.0895599 4294131242
-0.13581136 -1.406353 1.0888423 4294131242
-0.13581204 -1.4062784 1.0872158 4294131242
-0.13581209 -1.4062998 1.0870603 4294131242
-0.13581215 -1.4062682 1.0869647 4294131242
-0.13581219 -1.4062649 1.086834 4294131242
-0.13581227 -1.4062227 1.0867561 4294131242
-0.13581353 -1.4061048 1.0836976 4294131242
-0.13582151 -1.4056549 1.0640463 4294131242
-0.13582157 -1.4056481 1.0639048 4294131242
-0.13582236 -1.4054888 1.0621862 4294131242
-0.13582243 -1.4054111 1.0621437 4294131242
-0.1358225 -1.4053404 1.062094 4294131242
-0.13582282 -1.4054769 1.0609982 4294131242
-0.13779394 -1.4053147 1.1358489 4294131242
-0.13779399 -1.4053184 1.1357464 4294131242
-0.13779402 -1.4053363 1.1356226 4294131242
-0.13779403 -1.4054073 1.1354531 4294131242
-0.13779405 -1.4056807 1.1348773 4294131242
-0.13779402 -1.4058261 1.1346337 4294131242
-0.13779403 -1.4059043 1.13445 4294131242
-0.137794 -1.4060816 1.1341745 4294131242
-0.13779405 -1.4060818 1.1340684 4294131242
-0.13779408 -1.4061031 1.1339482 4294131242
-0.13779411 -1.4061069 1.1338387 4294131242
-0.13779417 -1.4060576 1.133782 4294131242
-0.13779423 -1.4060223 1.1337183 4294131242
-0.13779426 -1.406058 1.1335769 4294131242
-0.13779427 -1.4061042 1.133432 4294131242
-0.13779432 -1.4061115 1.1333189 4294131242
-0.13779435 -1.4061259 1.1331987 4294131242
-0.13779438 -1.406165 1.1330609 4294131242
-0.13779441 -1.4061688 1.1329514 4294131242
-0.13779446 -1.4061371 1.1328841 4294131242
-0.13779449 -1.4061408 1.1327746 4294131242
-0.13779454 -1.4061375 1.132672 4294131242
-0.13779457 -1.4061661 1.1325377 4294131242
-0.1377946 -1.4062052 1.1323999 4294131242
-0.13779464 -1.4061912 1.1323079 4294131242
-0.13779467 -1.4061879 1.1322124 4294131242
-0.13779473 -1.4061704 1.1321241 4294131242
-0.13779479 -1.4061174 1.1320709 4294131242
-0.13779485 -1.4060609 1.1320213 4294131242
-0.13779488 -1.4060788 1.1319047 4294131242
-0.13779491 -1.4061038 1.1317739 4294131242
-0.13779494 -1.4061289 1.1316432 4294131242
-0.13779497 -1.4061503 1.1315159 4294131242
-0.13779502 -1.4061646 1.1314029 4294131242
-0.13779505 -1.406172 1.1312896 4294131242
-0.13779511 -1.4061474 1.1312083 4294131242
-0.13779515 -1.4061264 1.1311234 4294131242
-0.13779519 -1.4061053 1.1310385 4294131242
-0.13779522 -1.4061232 1.1309218 4294131242
-0.13779525 -1.4061694 1.13077 4294131242
-0.13779528 -1.4061909 1.1306427 4294131242
-0.13779531 -1.4062229 1.1305048 4294131242
-0.13779536 -1.4062196 1.1304023 4294131242
-0.13779539 -1.4062304 1.1302857 4294131242
-0.13779543 -1.4062413 1.130169 4294131242
-0.13779548 -1.4062309 1.1300806 4294131242
-0.13779552 -1.4062276 1.129971 4294131242
-0.13779554 -1.4062597 1.1298403 4294131242
-0.13779558 -1.4062599 1.1297342 4294131242
-0.13779564 -1.406207 1.129681 4294131242
-0.1377957 -1.4061681 1.1296138 4294131242
-0.13779575 -1.4061754 1.1295006 4294131242
-0.13779576 -1.4062182 1.1293522 4294131242
-0.13779581 -1.4062325 1.129232 4294131242
-0.13779585 -1.4062221 1.1291366 4294131242
-0.13779587 -1.4062825 1.1289706 4294131242
-0.13779588 -1.4063216 1.1288257 4294131242
-0.13779594 -1.4062971 1.1287444 4294131242
-0.137796 -1.4062583 1.128677 4294131242
-0.13779604 -1.4062514 1.1285781 4294131242
-0.13779607 -1.4062659 1.1284579 4294131242
-0.13779612 -1.4062661 1.1283518 4294131242
-0.13779615 -1.4062768 1.1282351 4294131242
-0.13779619 -1.4062912 1.1281149 4294131242
-0.13779624 -1.4062737 1.1280266 4294131242
-0.13779627 -1.4062775 1.1279169 4294131242
-0.1377963 -1.4063202 1.1277615 4294131242
-0.13779636 -1.4062921 1.1276836 4294131242
-0.13779642 -1.4062498 1.1276199 4294131242
-0.13779643 -1.406289 1.127475 4294131242
-0.13779646 -1.406321 1.1273372 4294131242
-0.13779652 -1.4062859 1.1272664 4294131242
-0.13779657 -1.4062718 1.1271745 4294131242
-0.13779661 -1.4062756 1.1270578 4294131242
-0.13779663 -1.4063395 1.1268883 4294131242
-0.13779667 -1.4063292 1.1267928 4294131242
-0.13779673 -1.4062904 1.1267256 4294131242
-0.13779677 -1.4062765 1.1266335 4294131242
-0.13779677 -1.4063758 1.1264216 4294131242
-0.1377968 -1.4064186 1.1262732 4294131242
-0.13779686 -1.4063798 1.1262059 4294131242
-0.13779691 -1.4063551 1.1261175 4294131242
-0.13779694 -1.4063767 1.1259903 4294131242
-0.137797 -1.406345 1.125916 4294131242
-0.13779703 -1.4063559 1.1257993 4294131242
-0.13779707 -1.4063702 1.1256721 4294131242
-0.13779713 -1.406335 1.1256013 4294131242
-0.13779718 -1.4063281 1.1255023 4294131242
-0.13779716 -1.4064523 1.1252656 4294131242
-0.13779721 -1.4064596 1.1251525 4294131242
-0.13779727 -1.4064032 1.1251029 4294131242
-0.13779733 -1.4063785 1.1250144 4294131242
-0.13779736 -1.4064035 1.1248837 4294131242
-0.1377974 -1.4063754 1.1248058 4294131242
-0.13779746 -1.4063579 1.1247103 4294131242
-0.13779749 -1.4063723 1.1245902 4294131242
-0.1377975 -1.4064292 1.1244206 4294131242
-0.13779755 -1.4064364 1.1243075 4294131242
-0.13779758 -1.406458 1.1241732 4294131242
-0.13779762 -1.4064723 1.124053 4294131242
-0.13779765 -1.4064974 1.1239152 4294131242
-0.13779768 -1.4065224 1.1237773 4294131242
-0.13779774 -1.4064765 1.1237171 4294131242
-0.13779779 -1.4064803 1.1236075 4294131242
-0.13779782 -1.4065088 1.1234661 4294131242
-0.13779785 -1.406548 1.1233143 4294131242
-0.13779785 -1.4066616 1.1230811 4294131242
-0.13779789 -1.4066617 1.122975 4294131242
-0.13779795 -1.4065982 1.1229324 4294131242
-0.13779803 -1.4065382 1.1228864 4294131242
-0.13779809 -1.4064888 1.1228297 4294131242
-0.1377981 -1.4065351 1.1226707 4294131242
-0.13779816 -1.406507 1.1225929 4294131242
-0.13779821 -1.4064823 1.1225045 4294131242
-0.13779826 -1.4064614 1.1224196 4294131242
-0.13779831 -1.4064651 1.1223029 4294131242
-0.13779832 -1.4065291 1.1221262 4294131242
-0.13779837 -1.4065151 1.1220272 4294131242
-0.1377984 -1.4065685 1.1218611 4294131242
-0.13779841 -1.4066324 1.1216844 4294131242
-0.13779847 -1.4065795 1.1216314 4294131242
-0.1377985 -1.4066151 1.121483 4294131242
-0.13779852 -1.4066898 1.1212957 4294131242
-0.13779855 -1.4067254 1.1211473 4294131242
-0.13779861 -1.4066725 1.1210941 4294131242
-0.13779868 -1.4066089 1.1210445 4294131242
-0.13779873 -1.4065914 1.1209561 4294131242
-0.13779876 -1.4066236 1.1208112 4294131242
-0.1377988 -1.4066237 1.1206981 4294131242
-0.13779886 -1.4065921 1.1206237 4294131242
-0.13779889 -1.4066312 1.1204718 4294131242
-0.13779894 -1.4066138 1.1203763 4294131242
-0.13779899 -1.4065609 1.1203232 4294131242
-0.13779898 -1.4067383 1.1200194 4294131242
-0.13779901 -1.4067597 1.1198851 4294131242
-0.13779907 -1.4067138 1.119825 4294131242
-0.13779914 -1.4066113 1.1198212 4294131242
-0.1377992 -1.4065796 1.1197399 4294131242
-0.13779925 -1.4065834 1.1196302 4294131242
-0.13779928 -1.4065979 1.119503 4294131242
-0.13779931 -1.4066405 1.1193404 4294131242
-0.13779935 -1.406662 1.1192062 4294131242
-0.1377994 -1.4066339 1.1191282 4294131242
-0.13779946 -1.4066093 1.1190399 4294131242
-0.1377995 -1.4066095 1.1189268 4294131242
-0.13779955 -1.4066026 1.1188277 4294131242
-0.13779956 -1.406656 1.1186546 4294131242
-0.13779962 -1.4066279 1.1185696 4294131242
-0.13779971 -1.406639 1.1183327 4294131242
-0.1377998 -1.4067388 1.1178875 4294131242
-0.13779986 -1.4066858 1.1178344 4294131242
-0.13779992 -1.4066542 1.117753 4294131242
-0.13779996 -1.4066685 1.1176257 4294131242
-0.13780001 -1.4066334 1.117555 4294131242
-0.13780008 -1.4065734 1.1175019 4294131242
-0.13780013 -1.4065417 1.1174275 4294131242
-0.13780017 -1.4065419 1.1173143 4294131242
-0.1378002 -1.4065882 1.1171483 4294131242
-0.13780025 -1.4065955 1.1170281 4294131242
-0.13780029 -1.4065815 1.1169291 4294131242
-0.13780034 -1.4065924 1.1168053 4294131242
-0.13780037 -1.406621 1.1166639 4294131242
-0.13780043 -1.4065681 1.1166037 4294131242
-0.13780047 -1.4065931 1.1164659 4294131242
-0.1378005 -1.4066358 1.1163034 4294131242
-0.13780054 -1.4066218 1.1162044 4294131242
-0.13780059 -1.4066043 1.1161089 4294131242
-0.13780062 -1.4066541 1.1159463 4294131242
-0.13780066 -1.4066544 1.1158261 4294131242
-0.13780071 -1.4066476 1.11572 4294131242
-0.13780078 -1.4065875 1.115674 4294131242
-0.13780083 -1.4065843 1.1155643 4294131242
-0.13780086 -1.4065986 1.1154372 4294131242
-0.13780089 -1.4066448 1.1152711 4294131242
-0.13780092 -1.4066805 1.1151155 4294131242
-0.13780096 -1.4066914 1.1149918 4294131242
-0.13780101 -1.4066739 1.1148963 4294131242
-0.13780107 -1.40666 1.1147974 4294131242
-0.1378011 -1.4066672 1.11467 4294131242
-0.13780117 -1.4066073 1.1146239 4294131242
-0.13780123 -1.4065685 1.1145496 4294131242
-0.13780123 -1.4067034 1.1142882 4294131242
-0.13780127 -1.4066752 1.1142033 4294131242
-0.13780135 -1.4066223 1.1141431 4294131242
-0.13780138 -1.4066296 1.114023 4294131242
-0.13780142 -1.406637 1.1139028 4294131242
-0.13780148 -1.4065804 1.1138461 4294131242
-0.13780154 -1.4065452 1.1137754 4294131242
-0.1378016 -1.4065313 1.1136693 4294131242
-0.13780166 -1.4064748 1.1136196 4294131242
-0.13780168 -1.4066631 1.113178 4294131242
-0.13780171 -1.4067271 1.1129943 4294131242
-0.13780177 -1.4066954 1.1129129 4294131242
-0.13780183 -1.4066602 1.112835 4294131242
-0.13780189 -1.4066073 1.112782 4294131242
-0.13780192 -1.4066252 1.1126441 4294131242
-0.13780196 -1.4066218 1.1125345 4294131242
-0.137802 -1.4066256 1.1124108 4294131242
-0.13780203 -1.4066719 1.1122447 4294131242
-0.13780206 -1.4067395 1.1120503 4294131242
-0.13780209 -1.4067681 1.1119019 4294131242
-0.13780214 -1.4067612 1.1117958 4294131242
-0.1378022 -1.406726 1.1117179 4294131242
-0.13780224 -1.4067155 1.1116154 4294131242
-0.13780232 -1.4066697 1.1115482 4294131242
-0.13780236 -1.4066416 1.1114633 4294131242
-0.13780239 -1.406695 1.1112901 4294131242
-0.13780242 -1.4067307 1.1111275 4294131242
-0.13780248 -1.4067167 1.1110286 4294131242
-0.13780253 -1.4066921 1.1109401 4294131242
-0.13780254 -1.4067951 1.1107105 4294131242
-0.13780259 -1.4067776 1.1106079 4294131242
-0.13780268 -1.4066681 1.1106112 4294131242
-0.13780273 -1.406608 1.1105652 4294131242
-0.13780276 -1.4066436 1.1104096 4294131242
-0.13780278 -1.4067396 1.1101871 4294131242
-0.13780284 -1.4067043 1.1101093 4294131242
-0.13780288 -1.4067187 1.1099678 4294131242
-0.13780294 -1.40668 1.1099006 4294131242
-0.137803 -1.4066412 1.1098263 4294131242
-0.13780302 -1.4067301 1.1096108 4294131242
-0.13780306 -1.4067091 1.1095117 4294131242
-0.13780314 -1.406649 1.1094657 4294131242
-0.13780318 -1.4066386 1.109356 4294131242
-0.13780323 -1.4066495 1.1092253 4294131242
-0.13780329 -1.4066249 1.1091368 4294131242
-0.13780336 -1.406643 1.1088787 4294131242
-0.13780339 -1.4066964 1.1087056 4294131242
-0.13780342 -1.4067463 1.108529 4294131242
-0.13780348 -1.4067075 1.1084546 4294131242
-0.13780352 -1.4067149 1.1083274 4294131242
-0.13780357 -1.4067328 1.1081895 4294131242
-0.13780361 -1.4067153 1.108094 4294131242
-0.13780366 -1.4067261 1.1079632 4294131242
-0.13780372 -1.4066591 1.1079172 4294131242
-0.13780378 -1.4066238 1.1078393 4294131242
-0.13780381 -1.4067127 1.1076167 4294131242
-0.13780385 -1.4066987 1.1075177 4294131242
-0.1378039 -1.4066919 1.1074046 4294131242
-0.13780394 -1.4067028 1.1072738 4294131242
-0.13780399 -1.40671 1.1071535 4294131242
-0.13780402 -1.4067492 1.1069875 4294131242
-0.13780411 -1.4066219 1.1070085 4294131242
-0.13780415 -1.406608 1.1069094 4294131242
-0.13780418 -1.4066862 1.1066974 4294131242
-0.13780423 -1.4066899 1.1065807 4294131242
-0.13780427 -1.4066619 1.1064888 4294131242
-0.13780434 -1.4066195 1.106418 4294131242
-0.13780437 -1.4066516 1.106259 4294131242
-0.13780443 -1.40662 1.1061776 4294131242
-0.13780449 -1.4065741 1.1061103 4294131242
-0.13780452 -1.4065992 1.1059654 4294131242
-0.13780455 -1.4066526 1.1057853 4294131242
-0.1378046 -1.4066492 1.1056685 4294131242
-0.13780458 -1.4068338 1.1053365 4294131242
-0.13780466 -1.4067808 1.1052763 4294131242
-0.13780475 -1.4066571 1.1052938 4294131242
-0.13780481 -1.4066184 1.1052195 4294131242
-0.13780484 -1.4066646 1.1050463 4294131242
-0.13780493 -1.4066439 1.1048341 4294131242
-0.13780499 -1.4066299 1.104728 4294131242
-0.13780503 -1.4066302 1.1046078 4294131242
-0.13780507 -1.4066622 1.1044488 4294131242
-0.13780512 -1.4066483 1.1043427 4294131242
-0.13780518 -1.4066131 1.1042649 4294131242
-0.13780522 -1.406624 1.1041269 4294131242
-0.13780533 -1.4065996 1.1039183 4294131242
-0.13780536 -1.4066175 1.1037735 4294131242
-0.13780542 -1.4065895 1.1036885 4294131242
-0.13780548 -1.4065542 1.1036036 4294131242
-0.13780567 -1.4066795 1.1028508 4294131242
-0.13780573 -1.406655 1.1027553 4294131242
-0.1378058 -1.4065701 1.1027339 4294131242
-0.13780585 -1.4065455 1.1026454 4294131242
-0.13780589 -1.4065847 1.1024723 4294131242
-0.13780594 -1.406585 1.102345 4294131242
-0.13780598 -1.4065852 1.1022248 4294131242
-0.13780603 -1.4066103 1.1020728 4294131242
-0.13780607 -1.4066105 1.1019455 4294131242
-0.13780612 -1.4066355 1.1017935 4294131242
-0.13780616 -1.4066252 1.101684 4294131242
-0.13780624 -1.4065794 1.1016096 4294131242
-0.13780628 -1.4065548 1.1015211 4294131242
-0.13780631 -1.4066259 1.1013092 4294131242
-0.13780639 -1.4065269 1.1013019 4294131242
-0.13780645 -1.4064952 1.1012135 4294131242
-0.13780648 -1.4065664 1.1010085 4294131242
-0.13780652 -1.406595 1.1008459 4294131242
-0.13780653 -1.4066625 1.1006446 4294131242
-0.13780659 -1.4066203 1.1005738 4294131242
-0.13780667 -1.4065779 1.1004959 4294131242
-0.13780671 -1.4065924 1.1003546 4294131242
-0.13780676 -1.4065714 1.1002555 4294131242
-0.13780683 -1.4065291 1.1001775 4294131242
-0.13780686 -1.4065435 1.1000433 4294131242
-0.13780692 -1.4065225 1.0999372 4294131242
-0.13780698 -1.4064696 1.099877 4294131242
-0.13780704 -1.4064662 1.0997533 4294131242
-0.13780706 -1.4065409 1.0995448 4294131242
-0.13780712 -1.4065093 1.0994563 4294131242
-0.13780716 -1.4065273 1.0993043 4294131242
-0.13780722 -1.4064814 1.0992371 4294131242
-0.13780749 -1.406433 1.0986642 4294131242
-0.13780755 -1.4063978 1.0985863 4294131242
-0.13780755 -1.406547 1.0982755 4294131242
-0.13780762 -1.406455 1.0982612 4294131242
-0.1378077 -1.4063808 1.0982292 4294131242
-0.13780773 -1.4064449 1.0980242 4294131242
-0.13780776 -1.4065195 1.0978017 4294131242
-0.13780779 -1.40658 1.0976074 4294131242
-0.13780783 -1.4065838 1.0974766 4294131242
-0.13780789 -1.406538 1.0974022 4294131242
-0.13780795 -1.4065099 1.0973102 4294131242
-0.13780801 -1.406464 1.097243 4294131242
-0.1378081 -1.4063615 1.0972393 4294131242
-0.13780817 -1.4062767 1.0972178 4294131242
-0.1378082 -1.4063407 1.0970058 4294131242
-0.13780822 -1.4064331 1.0967727 4294131242
-0.13780837 -1.4064056 1.0964261 4294131242
-0.13780843 -1.4063845 1.09632 4294131242
-0.13780849 -1.4063741 1.0962033 4294131242
-0.13780853 -1.4063849 1.0960655 4294131242
-0.13780876 -1.40645 1.0953443 4294131242
-0.13780884 -1.4063475 1.0953406 4294131242
-0.13780893 -1.4063834 1.0950437 4294131242
-0.13780899 -1.4063412 1.0949658 4294131242
-0.13780905 -1.4062989 1.094888 4294131242
-0.13780925 -1.406314 1.0943577 4294131242
-0.13780934 -1.4063393 1.0940714 4294131242
-0.1378094 -1.4062935 1.093997 4294131242
-0.13780966 -1.4064156 1.093071 4294131242
-0.13780974 -1.4063449 1.0930355 4294131242
-0.13780981 -1.4062459 1.0930212 4294131242
-0.13781005 -1.406453 1.0919892 4294131242
-0.13781013 -1.4064035 1.0919254 4294131242
-0.13781053 -1.4063985 1.090886 4294131242
-0.13781145 -1.4062043 1.0888985 4294131242
-0.1378115 -1.406194 1.088782 4294131242
-0.13781154 -1.4062049 1.088637 4294131242
-0.13781159 -1.4062442 1.0884567 4294131242
-0.13781165 -1.406248 1.0883188 4294131242
-0.13781236 -1.4062302 1.0864874 4294131242
-0.13781242 -1.4062234 1.0863601 4294131242
-0.13781302 -1.4061093 1.085034 4294131242
-0.13781308 -1.406099 1.0849174 4294131242
-0.13782208 -1.4054413 1.0630028 4294131242
-0.13979402 -1.4051234 1.1360394 4294131242
-0.13979402 -1.405212 1.1358522 4294131242
-0.13979404 -1.4052973 1.1356615 4294131242
-0.13979405 -1.4053541 1.1355059 4294131242
-0.13979411 -1.405319 1.1354352 4294131242
-0.13979402 -1.4057338 1.1348244 4294131242
-0.13979401 -1.4059645 1.1343899 4294131242
-0.13979405 -1.405954 1.1343015 4294131242
-0.1397941 -1.4059401 1.1342095 4294131242
-0.13979413 -1.4059721 1.1340789 4294131242
-0.13979416 -1.4059936 1.1339515 4294131242
-0.1397942 -1.4060009 1.1338384 4294131242
-0.13979423 -1.4060259 1.1337148 4294131242
-0.13979426 -1.4060225 1.1336123 4294131242
-0.13979429 -1.406051 1.133485 4294131242
-0.13979432 -1.4060903 1.1333401 4294131242
-0.13979435 -1.4061046 1.13322 4294131242
-0.13979439 -1.4060977 1.133128 4294131242
-0.13979444 -1.4060944 1.1330254 4294131242
-0.13979445 -1.4061441 1.1328771 4294131242
-0.13979448 -1.4061692 1.1327463 4294131242
-0.13979454 -1.4061339 1.1326755 4294131242
-0.13979459 -1.4061306 1.13258 4294131242
-0.13979462 -1.406152 1.1324528 4294131242
-0.13979468 -1.4060991 1.1323997 4294131242
-0.13979474 -1.4060462 1.1323537 4294131242
-0.13979477 -1.4060712 1.1322229 4294131242
-0.1397948 -1.4060856 1.1321026 4294131242
-0.13979484 -1.4060822 1.1320001 4294131242
-0.13979489 -1.4060788 1.1319047 4294131242
-0.13979493 -1.4060755 1.1318021 4294131242
-0.13979496 -1.4060757 1.1316961 4294131242
-0.13979499 -1.4061326 1.1315335 4294131242
-0.13979502 -1.4061292 1.131438 4294131242
-0.13979508 -1.4060869 1.1313744 4294131242
-0.13979512 -1.4060872 1.1312683 4294131242
-0.13979514 -1.4061334 1.1311164 4294131242
-0.13979518 -1.4061443 1.1309997 4294131242
-0.13979521 -1.4061692 1.1308759 4294131242
-0.13979526 -1.4061376 1.1308017 4294131242
-0.13979532 -1.4060917 1.1307415 4294131242
-0.13979536 -1.4060919 1.1306354 4294131242
-0.13979541 -1.4061028 1.1305188 4294131242
-0.13979544 -1.40611 1.1304057 4294131242
-0.13979547 -1.4061315 1.1302855 4294131242
-0.13979551 -1.4061458 1.1301653 4294131242
-0.13979554 -1.4061602 1.1300452 4294131242
-0.13979557 -1.4061675 1.129932 4294131242
-0.13979562 -1.4061713 1.1298224 4294131242
-0.13979568 -1.4061432 1.1297445 4294131242
-0.13979572 -1.4061327 1.129649 4294131242
-0.13979572 -1.4062215 1.1294549 4294131242
-0.13979574 -1.4062854 1.1292852 4294131242
-0.1397958 -1.4062573 1.1292074 4294131242
-0.13979585 -1.4062079 1.1291507 4294131242
-0.1397959 -1.4061798 1.1290729 4294131242
-0.13979594 -1.4061658 1.1289809 4294131242
-0.13979599 -1.4061767 1.1288643 4294131242
-0.13979602 -1.4062123 1.1287229 4294131242
-0.13979603 -1.406255 1.1285745 4294131242
-0.13979609 -1.4062197 1.1285038 4294131242
-0.13979615 -1.4061491 1.1284683 4294131242
-0.1397962 -1.4061635 1.1283481 4294131242
-0.13979621 -1.4062275 1.1281785 4294131242
-0.13979626 -1.4061993 1.1281006 4294131242
-0.1397963 -1.4062066 1.1279875 4294131242
-0.1397963 -1.406306 1.1277755 4294131242
-0.13979635 -1.4063098 1.127666 4294131242
-0.13979641 -1.4062533 1.1276164 4294131242
-0.13979647 -1.4062252 1.1275386 4294131242
-0.13979651 -1.4062077 1.1274501 4294131242
-0.13979654 -1.406215 1.127337 4294131242
-0.13979656 -1.4063002 1.1271392 4294131242
-0.13979657 -1.4063818 1.1269519 4294131242
-0.13979663 -1.4063147 1.126913 4294131242
-0.13979669 -1.406276 1.1268457 4294131242
-0.13979673 -1.406255 1.1267608 4294131242
-0.13979679 -1.4062303 1.1266794 4294131242
-0.13979684 -1.406227 1.1265769 4294131242
-0.13979681 -1.406415 1.1262767 4294131242
-0.13979687 -1.4063514 1.1262342 4294131242
-0.13979691 -1.4063481 1.1261246 4294131242
-0.13979693 -1.4064121 1.125955 4294131242
-0.13979697 -1.4064264 1.1258278 4294131242
-0.13979702 -1.4064054 1.1257428 4294131242
-0.13979706 -1.4063773 1.1256651 4294131242
-0.13979711 -1.406374 1.1255624 4294131242
-0.13979712 -1.4064415 1.1253823 4294131242
-0.13979718 -1.4064133 1.1253045 4294131242
-0.13979724 -1.4063781 1.1252337 4294131242
-0.13979727 -1.406396 1.1251099 4294131242
-0.13979736 -1.4063858 1.1249014 4294131242
-0.1397974 -1.4063932 1.1247811 4294131242
-0.13979745 -1.4063721 1.1246963 4294131242
-0.13979749 -1.4063475 1.124615 4294131242
-0.13979752 -1.406408 1.1244417 4294131242
-0.13979755 -1.4064082 1.1243358 4294131242
-0.13979761 -1.4063977 1.1242331 4294131242
-0.13979763 -1.406444 1.1240813 4294131242
-0.13979767 -1.4064336 1.1239786 4294131242
-0.13979769 -1.4065152 1.1237844 4294131242
-0.13979775 -1.4064871 1.1237066 4294131242
-0.13979779 -1.4064838 1.1236041 4294131242
-0.13979782 -1.406484 1.1234908 4294131242
-0.13979788 -1.4064382 1.1234307 4294131242
-0.13979794 -1.4064171 1.1233387 4294131242
-0.13979797 -1.4064528 1.1231973 4294131242
-0.139798 -1.4064778 1.1230595 4294131242
-0.13979805 -1.4064603 1.1229711 4294131242
-0.1397981 -1.4064393 1.1228791 4294131242
-0.13979813 -1.4064608 1.1227448 4294131242
-0.13979816 -1.4064822 1.1226176 4294131242
-0.13979818 -1.4065533 1.1224339 4294131242
-0.13979833 -1.4064937 1.1221615 4294131242
-0.13979836 -1.4065293 1.1220131 4294131242
-0.13979842 -1.4065936 1.1217303 4294131242
-0.13979851 -1.4064875 1.1217302 4294131242
-0.13979861 -1.4064454 1.1215533 4294131242
-0.13979863 -1.4065235 1.1213626 4294131242
-0.13979869 -1.4064811 1.1212918 4294131242
-0.13979875 -1.4064354 1.1212316 4294131242
-0.13979876 -1.4065242 1.1210232 4294131242
-0.13979876 -1.4066023 1.1208323 4294131242
-0.13979882 -1.4065777 1.120744 4294131242
-0.13979885 -1.4065992 1.1206167 4294131242
-0.13979891 -1.4065676 1.1205353 4294131242
-0.13979895 -1.4065393 1.1204575 4294131242
-0.139799 -1.4065679 1.1203161 4294131242
-0.13979906 -1.406515 1.1202559 4294131242
-0.13979912 -1.4064621 1.1202028 4294131242
-0.13979919 -1.4066186 1.119701 4294131242
-0.13979924 -1.406633 1.1195737 4294131242
-0.13979927 -1.4066581 1.1194359 4294131242
-0.13979931 -1.4066405 1.1193476 4294131242
-0.13979937 -1.4065912 1.1192838 4294131242
-0.13979943 -1.4065524 1.1192166 4294131242
-0.13979949 -1.4065137 1.1191422 4294131242
-0.13979954 -1.4065068 1.1190361 4294131242
-0.13979954 -1.4066168 1.1188065 4294131242
-0.13979959 -1.4065958 1.1187216 4294131242
-0.13979965 -1.4065499 1.1186544 4294131242
-0.13979968 -1.4065572 1.1185342 4294131242
-0.1397997 -1.4066426 1.1183293 4294131242
-0.13979976 -1.4066037 1.1182621 4294131242
-0.13979985 -1.4064941 1.1182654 4294131242
-0.13979997 -1.4066225 1.1176788 4294131242
-0.13980004 -1.406566 1.117622 4294131242
-0.1398001 -1.4065061 1.1175759 4294131242
-0.13980018 -1.4065526 1.1173037 4294131242
-0.13980022 -1.406535 1.1172084 4294131242
-0.13980024 -1.4066344 1.1169822 4294131242
-0.13980025 -1.4066949 1.1168091 4294131242
-0.13980031 -1.4066455 1.1167454 4294131242
-0.13980035 -1.406667 1.116611 4294131242
-0.13980038 -1.4066885 1.1164768 4294131242
-0.13980046 -1.4066285 1.1164236 4294131242
-0.13980053 -1.406526 1.1164269 4294131242
-0.13980056 -1.4065652 1.1162679 4294131242
-0.13980058 -1.4066292 1.1160842 4294131242
-0.13980065 -1.4065763 1.1160311 4294131242
-0.13980071 -1.4065233 1.1159708 4294131242
-0.13980074 -1.406566 1.1158082 4294131242
-0.13980079 -1.4065592 1.1157022 4294131242
-0.13980085 -1.4065133 1.1156421 4294131242
-0.13980088 -1.4065348 1.1155077 4294131242
-0.13980091 -1.4065846 1.1153381 4294131242
-0.13980098 -1.4065069 1.1153026 4294131242
-0.139801 -1.4065851 1.1151048 4294131242
-0.13980103 -1.4066349 1.1149352 4294131242
-0.13980107 -1.406621 1.1148361 4294131242
-0.13980113 -1.4065787 1.1147724 4294131242
-0.13980119 -1.406547 1.114691 4294131242
-0.13980123 -1.4065366 1.1145885 4294131242
-0.13980129 -1.4065191 1.114493 4294131242
-0.13980129 -1.4067463 1.1140126 4294131242
-0.13980137 -1.4066933 1.1139524 4294131242
-0.13980144 -1.406605 1.1139345 4294131242
-0.1398015 -1.4065379 1.1138955 4294131242
-0.13980155 -1.4065417 1.1137788 4294131242
-0.13980158 -1.4065738 1.1136268 4294131242
-0.13980162 -1.4065776 1.1135031 4294131242
-0.13980167 -1.4065849 1.1133829 4294131242
-0.13980176 -1.406564 1.1131779 4294131242
-0.1398018 -1.4066956 1.1127998 4294131242
-0.13980183 -1.4067596 1.112609 4294131242
-0.13980186 -1.4067953 1.1124535 4294131242
-0.13980193 -1.4067069 1.1124357 4294131242
-0.13980201 -1.406615 1.1124213 4294131242
-0.13980205 -1.4066259 1.1122905 4294131242
-0.13980211 -1.4065835 1.1122268 4294131242
-0.13980217 -1.4065412 1.112156 4294131242
-0.13980232 -1.4066166 1.1116081 4294131242
-0.13980238 -1.4066098 1.1115021 4294131242
-0.13980241 -1.4066418 1.111343 4294131242
-0.13980246 -1.4066385 1.1112335 4294131242
-0.13980256 -1.4065858 1.1110601 4294131242
-0.13980258 -1.4066676 1.1108516 4294131242
-0.13980263 -1.4066643 1.1107349 4294131242
-0.13980269 -1.4066255 1.1106607 4294131242
-0.13980274 -1.4066044 1.1105686 4294131242
-0.1398028 -1.4065586 1.1105014 4294131242
-0.13980286 -1.4065093 1.1104448 4294131242
-0.13980289 -1.4065874 1.1102399 4294131242
-0.1398029 -1.4066727 1.1100209 4294131242
-0.13980296 -1.4066056 1.1099818 4294131242
-0.13980302 -1.4065739 1.1099004 4294131242
-0.13980305 -1.4066379 1.1097096 4294131242
-0.1398031 -1.4066417 1.1095929 4294131242
-0.13980314 -1.4066348 1.1094798 4294131242
-0.13980317 -1.406674 1.1093208 4294131242
-0.13980325 -1.4065715 1.1093171 4294131242
-0.13980331 -1.406554 1.1092145 4294131242
-0.13980331 -1.4066747 1.1089672 4294131242
-0.13980335 -1.4066962 1.1088188 4294131242
-0.13980341 -1.4066504 1.1087515 4294131242
-0.13980348 -1.4065797 1.108716 4294131242
-0.13980351 -1.4065942 1.1085817 4294131242
-0.13980354 -1.4066546 1.1083944 4294131242
-0.13980359 -1.4066761 1.108253 4294131242
-0.13980362 -1.406687 1.1081222 4294131242
-0.13980369 -1.4066341 1.1080691 4294131242
-0.13980375 -1.4066024 1.1079807 4294131242
-0.13980378 -1.4066062 1.107864 4294131242
-0.13980386 -1.4065603 1.1077896 4294131242
-0.13980393 -1.406472 1.1077719 4294131242
-0.13980395 -1.4065288 1.1075952 4294131242
-0.13980398 -1.4066 1.1073903 4294131242
-0.13980402 -1.4065861 1.1072912 4294131242
-0.13980407 -1.4066005 1.1071498 4294131242
-0.13980412 -1.4065865 1.1070508 4294131242
-0.13980429 -1.4066087 1.1065488 4294131242
-0.13980433 -1.4066337 1.1064039 4294131242
-0.13980439 -1.4065738 1.1063508 4294131242
-0.13980447 -1.4064853 1.1063329 4294131242
-0.1398045 -1.4065671 1.1061174 4294131242
-0.13980451 -1.4066559 1.1058948 4294131242
-0.13980459 -1.4065818 1.1058629 4294131242
-0.13980463 -1.4065713 1.1057532 4294131242
-0.13980462 -1.406738 1.105446 4294131242
-0.13980468 -1.4067135 1.1053575 4294131242
-0.13980475 -1.4066393 1.1053185 4294131242
-0.13980481 -1.4066077 1.1052371 4294131242
-0.13980483 -1.4067036 1.1050075 4294131242
-0.13980487 -1.4067003 1.1048908 4294131242
-0.13980493 -1.4066722 1.1047988 4294131242
-0.13980497 -1.4066653 1.1046857 4294131242
-0.13980505 -1.4065876 1.1046572 4294131242
-0.13980509 -1.4065701 1.1045547 4294131242
-0.13980514 -1.4065739 1.1044309 4294131242
-0.13980517 -1.4066591 1.1042119 4294131242
-0.13980521 -1.4066311 1.1041199 4294131242
-0.13980527 -1.40661 1.104028 4294131242
-0.1398053 -1.4066598 1.1038442 4294131242
-0.13980536 -1.4066283 1.1037629 4294131242
-0.13980542 -1.406593 1.103685 4294131242
-0.13980547 -1.406572 1.103586 4294131242
-0.13980553 -1.4065368 1.103501 4294131242
-0.13980557 -1.4065725 1.1033455 4294131242
-0.1398056 -1.4066045 1.1031865 4294131242
-0.13980566 -1.4065871 1.103084 4294131242
-0.1398057 -1.4065696 1.1029813 4294131242
-0.13980575 -1.4065698 1.1028612 4294131242
-0.13980581 -1.4065311 1.1027797 4294131242
-0.13980588 -1.4064676 1.1027302 4294131242
-0.13980594 -1.4064252 1.1026593 4294131242
-0.13980593 -1.4066275 1.1022956 4294131242
-0.13980596 -1.4066916 1.1020977 4294131242
-0.13980602 -1.4066422 1.102034 4294131242
-0.13980611 -1.4065007 1.1020762 4294131242
-0.13980617 -1.4064761 1.1019806 4294131242
-0.1398062 -1.406533 1.1017898 4294131242
-0.13980624 -1.4065298 1.1016731 4294131242
-0.13980632 -1.4064803 1.1016093 4294131242
-0.13980636 -1.4064523 1.1015174 4294131242
-0.13980637 -1.4065977 1.1012172 4294131242
-0.13980643 -1.4065661 1.1011287 4294131242
-0.13980649 -1.4065132 1.1010685 4294131242
-0.13980655 -1.4064922 1.1009694 4294131242
-0.1398066 -1.4064817 1.1008599 4294131242
-0.13980664 -1.4064997 1.1007149 4294131242
-0.13980669 -1.4065177 1.10057 4294131242
-0.13980673 -1.4065108 1.1004498 4294131242
-0.13980678 -1.4065182 1.1003155 4294131242
-0.13980682 -1.4065219 1.1001917 4294131242
-0.13980688 -1.4065223 1.1000644 4294131242
-0.13980693 -1.4065083 1.0999513 4294131242
-0.13980697 -1.4065014 1.0998381 4294131242
-0.13980703 -1.4064733 1.0997461 4294131242
-0.13980712 -1.4063815 1.0997318 4294131242
-0.13980718 -1.406325 1.0996752 4294131242
-0.13980721 -1.4063926 1.0994667 4294131242
-0.13980721 -1.4065275 1.099177 4294131242
-0.13980725 -1.4065454 1.0990322 4294131242
-0.13980733 -1.4064854 1.098979 4294131242
-0.13980737 -1.4064821 1.0988623 4294131242
-0.13980746 -1.4064932 1.0985972 4294131242
-0.13980749 -1.4065502 1.0983993 4294131242
-0.13980757 -1.4064654 1.0983778 4294131242
-0.13980766 -1.4063699 1.0983671 4294131242
-0.1398077 -1.4063915 1.0982115 4294131242
-0.13980775 -1.4063598 1.0981231 4294131242
-0.13980781 -1.40636 1.0979959 4294131242
-0.13980784 -1.4063993 1.0978227 4294131242
-0.13980806 -1.4063294 1.0974053 4294131242
-0.13980807 -1.406436 1.097151 4294131242
-0.1398081 -1.4064822 1.0969636 4294131242
-0.13980816 -1.4064684 1.0968505 4294131242
-0.13980822 -1.4064437 1.096755 4294131242
-0.13980827 -1.4064263 1.0966525 4294131242
-0.13980833 -1.4064265 1.0965252 4294131242
-0.13980836 -1.4064552 1.0963626 4294131242
-0.13980876 -1.4064287 1.0953726 4294131242
-0.13980885 -1.4063085 1.0953865 4294131242
-0.13980892 -1.406245 1.0953369 4294131242
-0.13980891 -1.4064401 1.0949731 4294131242
-0.13980934 -1.406357 1.0940466 4294131242
-0.13980938 -1.4063538 1.0939229 4294131242
-0.13980967 -1.4062275 1.0934347 4294131242
-0.13980973 -1.4061993 1.0933357 4294131242
-0.13980989 -1.4063528 1.0926324 4294131242
-0.13980995 -1.4063176 1.0925475 4294131242
-0.13981003 -1.4062185 1.0925403 4294131242
-0.13981093 -1.4062266 1.0901891 4294131242
-0.13981101 -1.4061347 1.0901678 4294131242
-0.13981107 -1.4062557 1.0897578 4294131242
-0.13981111 -1.4062809 1.0895917 4294131242
-0.13981242 -1.4062164 1.0863671 4294131242
