# .PCD v0.7 - Point Cloud Data file format
VERSION 0.7
FIELDS x y z
SIZE 4 4 4
TYPE F F F
COUNT 1 1 1
WIDTH 1312
HEIGHT 1
VIEWPOINT 0 0 0 1 0 0 0
POINTS 1312
DATA ascii
-0.0039868471 -0.78180724 0.81997919
-0.003986829 -0.78161627 0.82002831
-0.0039868248 -0.78149253 0.82002455
-0.0039868345 -0.78142899 0.81996077
-0.0039868457 -0.78137606 0.81989354
-0.0039868681 -0.78136921 0.81978035
-0.0039870176 -0.78172404 0.81910926
-0.0039870064 -0.78156841 0.81913018
-0.0039870385 -0.78160048 0.81897825
-0.0039870688 -0.7816326 0.81883335
-0.0039870781 -0.78157258 0.81877315
-0.0039870907 -0.78151971 0.81869876
-0.0039872313 -0.78161639 0.81801659
-0.0039873319 -0.78174812 0.81753957
-0.0039873435 -0.78169519 0.81747228
-0.0039873892 -0.78179103 0.81726384
-0.0039874297 -0.78186566 0.81707662
-0.0039874073 -0.78165692 0.81714338
-0.0039875931 -0.78227353 0.81634551
-0.0039875954 -0.78217816 0.81631351
-0.003987744 -0.78230321 0.81559604
-0.0039877854 -0.78238136 0.81540525
-0.0039876932 -0.78175497 0.8157329
-0.0039877063 -0.78170204 0.81565857
-0.0039878679 -0.78210294 0.81493449
-0.0039878786 -0.78204292 0.8148672
-0.0039879163 -0.78209984 0.81469053
-0.0039882557 -0.78230792 0.81303632
-0.00398828 -0.78230816 0.8129161
-0.0039882958 -0.78226942 0.81282765
-0.0039884644 -0.78226036 0.81198263
-0.0039885454 -0.78250146 0.81162953
-0.0039886576 -0.78288418 0.81114936
-0.0039885985 -0.78230757 0.81132156
-0.003988618 -0.78228301 0.81121898
-0.003988707 -0.78256303 0.81083411
-0.0039887219 -0.78252077 0.81074917
-0.0039893501 -0.78265023 0.80763459
-0.0039924947 -0.78426957 0.79224384
-0.0039931042 -0.78454024 0.78924978
-0.0039930744 -0.78431022 0.78935188
-0.0039956877 -0.78630638 0.77669829
-0.0039957212 -0.7863279 0.77653569
-0.0039958982 -0.78667587 0.77572316
-0.0039959112 -0.78661233 0.77564526
-0.0039960626 -0.78640878 0.7748459
-0.0039960593 -0.78628504 0.77483505
-0.003996178 -0.78618014 0.77421963
-0.0039962134 -0.78620517 0.77404648
-0.0039962404 -0.7861948 0.77390856
-0.0039962512 -0.78612071 0.77384126
-0.0039963261 -0.7862981 0.77350217
-0.003996443 -0.78663492 0.77299011
-0.0039964826 -0.78667772 0.77279931
-0.0039964579 -0.78646892 0.7728802
-0.0039963974 -0.7861256 0.77310938
-0.0039963597 -0.7858637 0.77324325
-0.0039994679 -0.78883982 0.7583217
-0.0040000244 -0.7883572 0.75543582
-0.006094269 -0.79204077 0.86078024
-0.0060942727 -0.79200906 0.86070597
-0.0060942392 -0.79184282 0.86072338
-0.0060942038 -0.79166603 0.86074424
-0.0060941717 -0.79150689 0.86076164
-0.0060941675 -0.79144335 0.86070496
-0.0060941363 -0.79128778 0.86071885
-0.0060941055 -0.79112864 0.86072916
-0.0060941046 -0.79107928 0.86066544
-0.006094113 -0.79106528 0.86058056
-0.006094106 -0.79099464 0.86053091
-0.006094005 -0.79058069 0.86071759
-0.0060939752 -0.79042864 0.86072791
-0.0060939752 -0.79038274 0.86066067
-0.0060939905 -0.79039359 0.86055815
-0.0060939817 -0.79031587 0.86051559
-0.0060938988 -0.78996915 0.86065638
-0.006093875 -0.78983831 0.86065263
-0.0060938438 -0.78967917 0.86066294
-0.0060938359 -0.78960502 0.86061686
-0.0060938396 -0.78957337 0.86054254
-0.006093808 -0.78941423 0.86055994
-0.0060937367 -0.78910995 0.86067253
-0.0060937009 -0.78893316 0.86069345
-0.0060936953 -0.78886962 0.8606438
-0.0060936427 -0.78863257 0.86071056
-0.0060936315 -0.78854781 0.8606751
-0.0060936455 -0.78855509 0.86057609
-0.0060936469 -0.78851277 0.86050528
-0.0060936217 -0.78837842 0.86050504
-0.0060935877 -0.78820866 0.86052597
-0.0060935416 -0.78799647 0.86057508
-0.0060935672 -0.78804618 0.86044788
-0.0060935984 -0.78811008 0.86029953
-0.0060935714 -0.78796864 0.86030632
-0.0060935011 -0.78767145 0.86041898
-0.0060934392 -0.78739905 0.86050683
-0.006093421 -0.7872895 0.86048895
-0.006093388 -0.78712332 0.86050636
-0.0060933474 -0.78693229 0.8605414
-0.0060933298 -0.78682274 0.86052352
-0.0060932986 -0.78666711 0.86053741
-0.0060932678 -0.78650802 0.86054772
-0.0060932473 -0.78638786 0.86053336
-0.0060932408 -0.78632075 0.86048728
-0.006093225 -0.78621823 0.86046237
-0.0060932101 -0.78611934 0.86043388
-0.0060931998 -0.7860381 0.86039484
-0.0060931761 -0.78590375 0.8603875
-0.0060931612 -0.78580832 0.86036265
-0.0060931006 -0.78554302 0.86045051
-0.0060930741 -0.78540158 0.86045027
-0.0060930443 -0.78524953 0.86046058
-0.006093008 -0.78507268 0.86048859
-0.0060929991 -0.78499496 0.86044604
-0.0060929852 -0.78489959 0.86041403
-0.0060929824 -0.78484666 0.86036092
-0.0060929931 -0.78483975 0.86026895
-0.0060929148 -0.78451073 0.86039919
-0.0060928827 -0.78435159 0.86041659
-0.0060928771 -0.78428453 0.86036342
-0.0060928417 -0.78411472 0.86039144
-0.0060927938 -0.78389543 0.86044759
-0.0060927891 -0.78383189 0.8603909
-0.0060927919 -0.78380018 0.86032367
-0.0060927877 -0.78373665 0.86026698
-0.0060927467 -0.78354567 0.86030906
-0.0060926834 -0.78327328 0.86040407
-0.0060926732 -0.78319204 0.86036503
-0.0060926494 -0.78306121 0.86036128
-0.0060926243 -0.78292334 0.86035746
-0.0060926201 -0.78286332 0.86030436
-0.0060925903 -0.78271478 0.86031824
-0.0060925535 -0.78253442 0.86034268
-0.0060925158 -0.78235406 0.86037415
-0.0060924795 -0.78218079 0.86040568
-0.0060924981 -0.78220218 0.86029255
-0.0060924976 -0.78215635 0.86023235
-0.0060924678 -0.7820043 0.86024272
-0.0060924324 -0.78183103 0.86026716
-0.0060924175 -0.78173208 0.86023867
-0.0060923914 -0.78159416 0.86024195
-0.0060923584 -0.7814315 0.86026287
-0.0060923588 -0.78138566 0.86019564
-0.0060923635 -0.78136104 0.86012137
-0.0060923407 -0.78123379 0.86011404
-0.0060923183 -0.78110653 0.86010677
-0.0060922853 -0.78094381 0.86012769
-0.006092221 -0.7806679 0.86022621
-0.0060921879 -0.78050524 0.86024714
-0.0060921768 -0.78042042 0.86021161
-0.006092146 -0.78026485 0.8602255
-0.0060920934 -0.78003138 0.86029577
-0.0060920808 -0.77994305 0.86026376
-0.0060920697 -0.77985823 0.8602283
-0.0060920585 -0.77977347 0.86019278
-0.0060920347 -0.77964616 0.86019254
-0.0060919994 -0.7794764 0.86022055
-0.0060919803 -0.77936327 0.86020619
-0.0060919728 -0.77929264 0.86016363
-0.00609195 -0.7791689 0.86015987
-0.006091902 -0.77895314 0.8602196
-0.0060918406 -0.77869135 0.86031812
-0.0060918303 -0.77861011 0.86027908
-0.0060918676 -0.7786988 0.86012018
-0.0060918783 -0.77869189 0.86002821
-0.0060918522 -0.77855396 0.86003155
-0.0060918066 -0.7783488 0.86008775
-0.0060917689 -0.77817196 0.86012274
-0.0060917409 -0.778027 0.86013311
-0.0060917283 -0.77793866 0.86010116
-0.0060917218 -0.77787161 0.86005503
-0.0060916981 -0.77774429 0.86005485
-0.0060916459 -0.77751434 0.86012864
-0.0060916152 -0.77736229 0.86014605
-0.0060915835 -0.77720672 0.86016703
-0.006091563 -0.77709001 0.86015618
-0.0060915598 -0.77703357 0.86009955
-0.0060915486 -0.77694881 0.86006403
-0.0060915034 -0.77674717 0.86012375
-0.0060914843 -0.77663404 0.86010945
-0.0060914685 -0.77653509 0.86008805
-0.0060914243 -0.77633345 0.86014068
-0.0060913726 -0.77610707 0.86021101
-0.0060913572 -0.77600813 0.86018962
-0.0060913404 -0.77590561 0.86017179
-0.0060913302 -0.77582788 0.86013627
-0.006091319 -0.77574313 0.86010075
-0.006091292 -0.77560169 0.8601076
-0.0060912822 -0.77552396 0.86007208
-0.0060912869 -0.77549577 0.85999429
-0.006091245 -0.77530479 0.86004341
-0.0060911868 -0.77505714 0.8601349
-0.0060911537 -0.77489448 0.86015582
-0.0060911351 -0.77478486 0.86014503
-0.0060911169 -0.77467531 0.86012715
-0.0060911011 -0.77457637 0.86010575
-0.0060910834 -0.77447033 0.86009145
-0.0060910629 -0.77435368 0.8600806
-0.0060910429 -0.77424055 0.86007333
-0.0060910233 -0.77412742 0.86005902
-0.0060910215 -0.77407801 0.86000234
-0.0060910275 -0.77405345 0.85992098
-0.0060909889 -0.77387303 0.85995954
-0.0060909479 -0.77368557 0.8600052
-0.0060909279 -0.77357244 0.85999793
-0.0060909158 -0.77348411 0.85996592
-0.0060909069 -0.77340996 0.85992688
-0.0060909074 -0.77336764 0.85986322
-0.0060909051 -0.77331471 0.85980302
-0.0060908841 -0.77319807 0.85979927
-0.0060908683 -0.77309912 0.85977787
-0.0060908743 -0.77307451 0.85969651
-0.0060908734 -0.77302867 0.85963631
-0.0060908669 -0.77296156 0.85959023
-0.0060908492 -0.77285552 0.85957593
-0.0060908389 -0.77277428 0.85953689
-0.0060908482 -0.77276379 0.85944849
-0.0060908375 -0.77268255 0.85941648
-0.0060908115 -0.77254462 0.85941982
-0.0060907979 -0.77245629 0.85939491
-0.0060907984 -0.77241403 0.85933119
-0.0060908045 -0.77238941 0.85924983
-0.0060908049 -0.77234709 0.85918611
-0.0060907993 -0.77228355 0.85913646
-0.0060908087 -0.77227306 0.85904807
-0.0060908115 -0.77223784 0.85897732
-0.0060907938 -0.7721318 0.85896295
-0.006090764 -0.77198327 0.85897684
-0.0060907383 -0.77184892 0.8589837
-0.0060907304 -0.77177829 0.85894114
-0.0060907388 -0.77176428 0.85885626
-0.0060907486 -0.77175385 0.85876787
-0.006090743 -0.77169031 0.85871822
-0.0060907435 -0.77164799 0.8586545
-0.0060907481 -0.77161986 0.85857671
-0.006090736 -0.77153504 0.85854822
-0.0060907281 -0.77146089 0.85850215
-0.0060907276 -0.771415 0.85844201
-0.0060907211 -0.77134794 0.85839587
-0.006090696 -0.77121711 0.85839921
-0.0060906839 -0.77112877 0.8583672
-0.0060907039 -0.77115726 0.85825413
-0.0060907132 -0.77114326 0.85816216
-0.0060906881 -0.77101243 0.8581655
-0.0060906843 -0.77095598 0.85811591
-0.0060907016 -0.77097386 0.85800636
-0.0060907202 -0.77099174 0.85788971
-0.0060907397 -0.77101672 0.85777307
-0.0060907369 -0.77096373 0.8577199
-0.0060907109 -0.77082938 0.85772675
-0.0060907034 -0.77075875 0.8576842
-0.0060907071 -0.7707271 0.85760987
-0.0060907048 -0.77067411 0.85754973
-0.0060906908 -0.77058226 0.85752833
-0.0060906759 -0.77048683 0.85750341
-0.0060906881 -0.77048349 0.85740793
-0.0060907085 -0.77051198 0.85728776
-0.0060907123 -0.77048028 0.8572135
-0.0060907039 -0.77040613 0.85717446
-0.0060907179 -0.77040982 0.85707194
-0.0060907477 -0.7704702 0.8569271
-0.0060907616 -0.7704739 0.85682458
-0.0060907607 -0.77042806 0.85676438
-0.0060907747 -0.77043176 0.85666186
-0.0060908059 -0.77049565 0.8565135
-0.0060908329 -0.77054542 0.85637921
-0.0060908282 -0.7704854 0.8563261
-0.0060908208 -0.77041477 0.85628355
-0.0060908347 -0.77041847 0.85618097
-0.0060908715 -0.77050364 0.85601848
-0.0060908957 -0.77054274 0.85588777
-0.0060909027 -0.7705217 0.85580289
-0.0060909181 -0.77053249 0.85570037
-0.0060909516 -0.77060342 0.85554492
-0.0060909563 -0.77057534 0.85546708
-0.0060909432 -0.77048343 0.85543865
-0.0060909619 -0.77050483 0.85532558
-0.0060909917 -0.77056521 0.85518068
-0.0060910252 -0.7706362 0.85502523
-0.0060910843 -0.7707957 0.85479575
-0.0060925507 -0.77559066 0.85037774
-0.0060926233 -0.77579975 0.85012007
-0.0060929037 -0.77673459 0.84930146
-0.0060929391 -0.77681267 0.84913898
-0.0060929814 -0.77691549 0.84895885
-0.0060930299 -0.77703959 0.8487646
-0.0060931006 -0.77723807 0.84850329
-0.0060934885 -0.77822018 0.84692466
-0.0060935346 -0.77828783 0.84666669
-0.0060934788 -0.77804726 0.84675115
-0.0060934424 -0.77787751 0.8467862
-0.0060934564 -0.77787769 0.8466801
-0.006093502 -0.77799118 0.84648937
-0.0060934909 -0.77790636 0.84645391
-0.0060936548 -0.77833533 0.84580767
-0.0060936296 -0.77820098 0.84580743
-0.0060936776 -0.7783215 0.84560961
-0.0060936972 -0.77834296 0.84548944
-0.0060937228 -0.77838558 0.84535521
-0.0060937926 -0.77853465 0.84503019
-0.0060937786 -0.77843928 0.84499818
-0.0060937973 -0.77845716 0.84488153
-0.006093794 -0.77840072 0.84482491
-0.0060937908 -0.77834421 0.84476823
-0.0060937922 -0.77830195 0.84469742
-0.0060936934 -0.77791268 0.8449018
-0.0060936795 -0.77781725 0.84486979
-0.0060939128 -0.77848697 0.84403306
-0.0060944594 -0.7796194 0.84144354
-0.0060944594 -0.77957356 0.8413763
-0.0060944143 -0.7793684 0.84143251
-0.0060943724 -0.77917737 0.84148163
-0.0060945717 -0.77972323 0.84072602
-0.0060945367 -0.77955341 0.84075397
-0.0060945083 -0.77940845 0.84076434
-0.0060946243 -0.77976269 0.84037608
-0.0060946746 -0.77988684 0.8401677
-0.006094662 -0.77979499 0.84013218
-0.0060946373 -0.77966416 0.84013546
-0.0060946364 -0.77961123 0.84006822
-0.0060946681 -0.77967513 0.83991277
-0.0060946443 -0.77954435 0.83990896
-0.0060948981 -0.78036952 0.83913618
-0.0060949051 -0.7803449 0.83904773
-0.0060948175 -0.77999812 0.83922392
-0.0060947984 -0.77988499 0.83920956
-0.0060948269 -0.77993476 0.83906114
-0.0060948213 -0.77986771 0.83900797
-0.0060948147 -0.77979708 0.83895838
-0.0060948557 -0.77988929 0.83877468
-0.0060948934 -0.77997094 0.83860159
-0.0060949251 -0.78003132 0.83844262
-0.0060949437 -0.7800492 0.83832598
-0.0060949586 -0.78005296 0.83821636
-0.0060949633 -0.78002125 0.838135
-0.0060949316 -0.77986568 0.83815593
-0.0060949042 -0.77972424 0.83816272
-0.0060949293 -0.77975982 0.8380214
-0.0060949633 -0.77983081 0.83785886
-0.0060950238 -0.77999038 0.83762228
-0.006095075 -0.78011799 0.83741039
-0.0060951058 -0.78017133 0.83725137
-0.0060951081 -0.78013259 0.83717704
-0.0060951365 -0.7801823 0.83702868
-0.0060951854 -0.78030288 0.83682382
-0.0060951971 -0.78029245 0.83672124
-0.0060951593 -0.7801156 0.83675629
-0.0060951253 -0.77995294 0.8367843
-0.0060952152 -0.78021163 0.83646303
-0.0060952674 -0.7803393 0.83624405
-0.0060952585 -0.78026158 0.83620149
-0.0060952436 -0.78016263 0.836173
-0.0060952539 -0.78014868 0.83607399
-0.0060952939 -0.78023738 0.83589387
-0.0060952827 -0.78015256 0.83585835
-0.0060952622 -0.78003591 0.8358475
-0.0060953074 -0.78013879 0.83564621
-0.0060953689 -0.78029835 0.83540249
-0.0060953544 -0.78020293 0.83537757
-0.00609536 -0.78017479 0.8352927
-0.0060953908 -0.78022814 0.83513367
-0.0060954178 -0.78027433 0.83498883
-0.0060954546 -0.7803489 0.83481568
-0.0060954634 -0.78033137 0.83472019
-0.0060954951 -0.78039175 0.83456123
-0.0060955202 -0.7804274 0.83441985
-0.0060955053 -0.78032845 0.83439142
-0.0060954862 -0.78021532 0.83437705
-0.0060955137 -0.780258 0.83422863
-0.0060955612 -0.78037149 0.83402377
-0.0060955714 -0.78035754 0.83392477
-0.006095591 -0.78037542 0.83380103
-0.0060956008 -0.78036147 0.83370203
-0.0060956068 -0.78033334 0.83361715
-0.0060956045 -0.78027689 0.83355337
-0.006095625 -0.78029835 0.83342612
-0.0060956576 -0.78035873 0.83326006
-0.0060956702 -0.78035182 0.83315402
-0.0060956739 -0.78031665 0.83307618
-0.0060957032 -0.78036642 0.83292067
-0.0060957554 -0.78049761 0.83270526
-0.0060957973 -0.78058988 0.83251452
-0.0060958066 -0.78056884 0.83241546
-0.0060958802 -0.78077084 0.83213651
-0.0060958951 -0.78077102 0.83202338
-0.0060958769 -0.78066146 0.8320055
-0.0060958611 -0.780559 0.83198059
-0.006095889 -0.7806052 0.83182865
-0.0060959496 -0.78076124 0.83158851
-0.0060959505 -0.78071541 0.83151418
-0.0060959314 -0.78060228 0.83149981
-0.0060959165 -0.78050333 0.83147138
-0.0060959337 -0.78051412 0.83135468
-0.0060959696 -0.78058517 0.83117807
-0.0060959868 -0.78059596 0.83106142
-0.0060959985 -0.78058559 0.83095884
-0.0060959947 -0.78052205 0.83089507
-0.0060959733 -0.78040183 0.83088779
-0.0060959836 -0.78038788 0.83078879
-0.0060961014 -0.78073508 0.83037931
-0.0060961433 -0.78082734 0.83018851
-0.006096133 -0.78074259 0.83014596
-0.0060960818 -0.78052324 0.83022338
-0.0060960413 -0.7803393 0.8302725
-0.006096073 -0.78039616 0.83011001
-0.0060961456 -0.78059107 0.829831
-0.006096229 -0.78082144 0.82951677
-0.0060962508 -0.78084648 0.829386
-0.0060962369 -0.78075105 0.82935399
-0.0060962508 -0.78074771 0.82924438
-0.0060962881 -0.78082579 0.82906777
-0.0060963016 -0.78082246 0.82895815
-0.0060963174 -0.78082621 0.82884151
-0.0060963775 -0.7809822 0.82860136
-0.0060963901 -0.78097528 0.82849526
-0.0060963891 -0.78092241 0.82842803
-0.0060963966 -0.7808978 0.82833248
-0.0060963924 -0.78083426 0.8282758
-0.0060963901 -0.78077781 0.82821208
-0.0060964208 -0.78083116 0.82805306
-0.006096432 -0.78082073 0.82795054
-0.0060963277 -0.78037143 0.82810885
-0.0060966518 -0.78141266 0.8271066
-0.0060965498 -0.78101981 0.82732862
-0.0060965586 -0.78100228 0.82723314
-0.0060965256 -0.78083962 0.82725406
-0.0060967533 -0.78141052 0.82631814
-0.0060966266 -0.78093266 0.82661074
-0.0060965801 -0.78072751 0.82667404
-0.006096683 -0.78102165 0.8263033
-0.0060967589 -0.78122723 0.82601374
-0.0060965787 -0.78057235 0.82646161
-0.0060965582 -0.78045571 0.82645082
-0.0060965489 -0.78037447 0.82640469
-0.0060967812 -0.78100532 0.82552195
-0.0060968068 -0.78104097 0.82537353
-0.0060968772 -0.78122884 0.82510161
-0.0060969293 -0.781353 0.82487911
-0.0060969051 -0.78122216 0.8248753
-0.0060969298 -0.78115547 0.82458884
-0.0060969922 -0.78131503 0.82433808
-0.0060970285 -0.78138608 0.82416141
-0.0060970262 -0.78132963 0.82409769
-0.0060969545 -0.78103948 0.82423151
-0.0060969512 -0.78097594 0.82416779
-0.00609696 -0.78095841 0.8240723
-0.0060970765 -0.78114694 0.82344681
-0.0060971295 -0.78127462 0.82322079
-0.0060971393 -0.78125709 0.82311821
-0.0060971314 -0.78118294 0.82307214
-0.006097205 -0.78137439 0.82278258
-0.0060972511 -0.78148079 0.82257766
-0.0060972329 -0.78136772 0.82255626
-0.0060972217 -0.78127939 0.82251722
-0.0060972353 -0.78127605 0.8224076
-0.0060972068 -0.78113109 0.82241797
-0.0060972078 -0.78108525 0.82234365
-0.0060972688 -0.78123772 0.82209289
-0.0060972925 -0.78126627 0.82195151
-0.0060974914 -0.78187907 0.82129854
-0.0060974346 -0.7816385 0.82139003
-0.0060974164 -0.78152889 0.82137215
-0.006097422 -0.78149724 0.8212837
-0.0060973982 -0.78136647 0.82127994
-0.0060973698 -0.78122145 0.82129025
-0.0060973559 -0.78112608 0.82125831
-0.0060974867 -0.78145933 0.82072854
-0.0060975072 -0.78147727 0.82059777
-0.0060975309 -0.78150576 0.82045639
-0.0060975375 -0.78147411 0.8203609
-0.0060975938 -0.78161246 0.82012427
-0.006097571 -0.7814852 0.82011694
-0.0060975957 -0.78151727 0.81997204
-0.0060975957 -0.78146785 0.81990123
-0.0060976958 -0.7816456 0.81938535
-0.0060976525 -0.78145105 0.81943804
-0.0060976064 -0.7812494 0.81950486
-0.0060975351 -0.78096277 0.81964225
-0.0060975291 -0.78089213 0.81958556
-0.006097714 -0.78145188 0.8189643
-0.0060976744 -0.78127146 0.81900996
-0.0060976814 -0.78124338 0.81891799
-0.0060976776 -0.78117985 0.81885421
-0.0060979663 -0.78208303 0.81792599
-0.0060977046 -0.78116608 0.81862789
-0.0060977167 -0.78115565 0.81851828
-0.0060977661 -0.78126919 0.81829929
-0.0060978471 -0.78148544 0.817985
-0.0060978732 -0.78152102 0.81783658
-0.0060979407 -0.78169125 0.81756115
-0.0060979393 -0.78163832 0.81749386
-0.0060979491 -0.78161728 0.81738776
-0.0060980911 -0.78198248 0.81681919
-0.0060980786 -0.78189063 0.81678367
-0.0060980935 -0.78173566 0.81644398
-0.0060980967 -0.7816934 0.81635904
-0.0060980851 -0.78160506 0.81632
-0.0060984413 -0.78246689 0.81481183
-0.0060984176 -0.78233606 0.81480807
-0.006098324 -0.78172117 0.81464434
-0.0060983952 -0.78164458 0.8139866
-0.0060984665 -0.78172314 0.81354833
-0.0060985787 -0.78203851 0.81313527
-0.0060985675 -0.78195018 0.81309623
-0.0060986597 -0.78204316 0.81251651
-0.0060986485 -0.78195482 0.81247747
-0.006098649 -0.78179967 0.81225091
-0.0060986811 -0.78185302 0.81207776
-0.0060986946 -0.78184617 0.81196463
-0.0060989959 -0.78251326 0.81060112
-0.0060990816 -0.78258497 0.81004262
-0.0060990294 -0.7823621 0.81012356
-0.0060995184 -0.78263324 0.80674052
-0.0060994979 -0.78251308 0.80672616
-0.00610227 -0.78404272 0.78753442
-0.0061022784 -0.78401464 0.78742832
-0.0061035361 -0.78554469 0.77992505
-0.0061041811 -0.78632581 0.77606922
-0.0061039315 -0.78532791 0.77656239
-0.0061042905 -0.7863732 0.77529502
-0.0061043343 -0.78644782 0.7750653
-0.0061040623 -0.78549898 0.77579904
-0.0061041224 -0.78562677 0.77551639
-0.0061043403 -0.78623635 0.77471137
-0.0061043873 -0.78632158 0.7744711
-0.0061043939 -0.7861101 0.77411717
-0.0061043934 -0.78605014 0.77403575
-0.0061046397 -0.78668827 0.773054
-0.0061046691 -0.7867204 0.77287376
-0.0061046705 -0.78666753 0.77278531
-0.0061047343 -0.78680241 0.77248853
-0.0061045773 -0.78626424 0.77292597
-0.0061044856 -0.78592443 0.7731446
-0.0061046644 -0.78641355 0.77246666
-0.0061048781 -0.78700894 0.77167577
-0.0061048674 -0.78691709 0.77162606
-0.0061048865 -0.78691733 0.77147758
-0.0061048185 -0.78665197 0.77162206
-0.0061047203 -0.7862944 0.77186537
-0.0061050598 -0.78727239 0.77065092
-0.0061068106 -0.78871047 0.75920892
-0.0061068884 -0.78864455 0.75851232
-0.0061068903 -0.78858811 0.75842029
-0.0061068661 -0.78845733 0.75841647
-0.0061071236 -0.78898633 0.75719059
-0.0061137709 -0.7955237 0.71529901
-0.0061137872 -0.79550278 0.71514344
-0.006113797 -0.7954641 0.71501255
-0.0079901572 -0.79229587 0.86065382
-0.0079902569 -0.79270667 0.86027986
-0.0079902941 -0.79280597 0.86011738
-0.0079901833 -0.79196757 0.86039513
-0.0079900725 -0.79132342 0.86074042
-0.0079900706 -0.79122448 0.86071193
-0.0079901051 -0.79130608 0.86056006
-0.0079901125 -0.79125315 0.86049986
-0.00799012 -0.79120022 0.86043966
-0.0079901498 -0.79125708 0.86030543
-0.0079901218 -0.79102713 0.86036509
-0.0079900771 -0.79071581 0.86048472
-0.0079900827 -0.7906487 0.86043155
-0.0079900799 -0.79054624 0.86040664
-0.0079900632 -0.79037291 0.86043108
-0.0079900464 -0.7901926 0.86045545
-0.0079900147 -0.78994846 0.86052924
-0.0079900054 -0.78980708 0.86052901
-0.0079900166 -0.78977537 0.86045468
-0.0079900278 -0.78974015 0.86038393
-0.0079900213 -0.78961647 0.86037308
-0.0079900064 -0.78945023 0.86039042
-0.0079899831 -0.78924155 0.86043602
-0.0079899356 -0.78891957 0.8605662
-0.0079899933 -0.78911448 0.86032969
-0.0079899402 -0.78876418 0.86048108
-0.0079899253 -0.788598 0.86049843
-0.0079899319 -0.78853446 0.86044174
-0.0079899179 -0.78837889 0.86045563
-0.0079899151 -0.78827637 0.86043066
-0.0079899179 -0.78819865 0.8603881
-0.0079899067 -0.78805017 0.8603949
-0.0079898732 -0.787799 0.86047572
-0.0079898648 -0.78766465 0.86046845
-0.0079898201 -0.78734976 0.86059159
-0.007989821 -0.78726852 0.86055255
-0.0079898452 -0.78730059 0.8604359
-0.0079898462 -0.78721577 0.86040044
-0.0079898322 -0.78705311 0.86041427
-0.0079898201 -0.78690457 0.86042106
-0.007989794 -0.78668529 0.86047721
-0.007989808 -0.78666067 0.86039585
-0.0079897922 -0.78649092 0.86041677
-0.007989781 -0.78634596 0.86041999
-0.0079897838 -0.78626829 0.86037743
-0.0079897642 -0.78608435 0.86041248
-0.0079897298 -0.78582257 0.86049682
-0.007989727 -0.78572011 0.86047184
-0.0079897465 -0.78572732 0.8603729
-0.0079897568 -0.78568506 0.86030209
-0.007989727 -0.78545159 0.86037236
-0.0079896916 -0.7851792 0.86046028
-0.0079897018 -0.78514397 0.86038947
-0.007989713 -0.78510875 0.86031872
-0.0079896897 -0.7849071 0.86036426
-0.0079896636 -0.78468782 0.86042047
-0.0079896739 -0.78464907 0.86035317
-0.0079896711 -0.78454655 0.86032826
-0.0079896571 -0.78438741 0.86034566
-0.0079896366 -0.78419644 0.86038065
-0.0079896338 -0.7840904 0.86035925
-0.0079896376 -0.78401983 0.8603096
-0.0079896441 -0.78396338 0.86025292
-0.0079896282 -0.78379714 0.86027735
-0.0079896105 -0.7836203 0.86030531
-0.0079896143 -0.78355318 0.86025923
-0.0079895984 -0.78338349 0.86028016
-0.0079895826 -0.78321373 0.86030102
-0.0079895854 -0.7831431 0.86025846
-0.0079895752 -0.78300166 0.86025822
-0.0079895696 -0.78288502 0.86024737
-0.0079895491 -0.78269404 0.86028242
-0.0079895146 -0.78243577 0.86037028
-0.00798951 -0.78231913 0.8603524
-0.0079895258 -0.78231573 0.860264
-0.0079895481 -0.78233367 0.86015445
-0.0079895612 -0.78230906 0.86007309
-0.0079895686 -0.78225255 0.86001641
-0.0079895388 -0.78201908 0.86008668
-0.0079895183 -0.78183162 0.86012524
-0.0079894913 -0.78160882 0.86018491
-0.0079894504 -0.78132224 0.86029398
-0.0079894438 -0.7811985 0.86028314
-0.0079894559 -0.78117388 0.86020887
-0.0079894643 -0.78112453 0.86014509
-0.0079894476 -0.78095829 0.86016953
-0.0079894364 -0.78080976 0.86017632
-0.0079894178 -0.7806294 0.8602078
-0.0079894001 -0.78045255 0.86023581
-0.0079894075 -0.78040671 0.86017561
-0.0079894029 -0.78029364 0.86016124
-0.0079893824 -0.78010261 0.86019623
-0.0079893712 -0.77996123 0.86020303
-0.0079893814 -0.77992243 0.86013579
-0.007989374 -0.77980226 0.86012852
-0.0079893339 -0.77952272 0.8602376
-0.007989319 -0.77936357 0.86025494
-0.0079893302 -0.77932841 0.86018419
-0.0079893125 -0.77915859 0.86021215
-0.0079892967 -0.77899945 0.86023659
-0.0079892939 -0.7789005 0.86021519
-0.0079892837 -0.77876264 0.86021847
-0.0079892818 -0.77866721 0.86019355
-0.0079892818 -0.77857888 0.8601616
-0.0079892809 -0.77849054 0.86012959
-0.007989279 -0.77839518 0.86010468
-0.0079892697 -0.77826083 0.86010444
-0.0079892557 -0.77810872 0.86012179
-0.0079892389 -0.77793896 0.8601498
-0.0079892166 -0.77775151 0.8601954
-0.0079892194 -0.77767378 0.86015284
-0.0079892389 -0.77768463 0.86005032
-0.007989225 -0.77753252 0.86006773
-0.0079891905 -0.77728134 0.86015564
-0.0079891868 -0.77717888 0.86013776
-0.0079891784 -0.77705157 0.86013752
-0.0079891756 -0.77694911 0.86011261
-0.0079891756 -0.77686077 0.8600806
-0.0079891644 -0.77672642 0.86008739
-0.0079891486 -0.77656728 0.86011183
-0.0079891225 -0.77635854 0.86017162
-0.007989102 -0.77617109 0.86021012
-0.0079891011 -0.77608275 0.86018521
-0.0079891225 -0.77609354 0.86007565
-0.0079891328 -0.77605832 0.86000484
-0.0079891067 -0.77585316 0.86006814
-0.0079890657 -0.77557009 0.86018074
-0.0079890601 -0.77545696 0.86016637
-0.0079890443 -0.77529782 0.86019081
-0.0079890406 -0.77519536 0.86017293
-0.0079890685 -0.77524155 0.86004221
-0.0079890909 -0.77525592 0.85992908
-0.0079890816 -0.7751286 0.85992891
-0.0079890667 -0.77497303 0.85994977
-0.0079890601 -0.77485991 0.8599425
-0.0079890406 -0.77467948 0.85998106
-0.0079890089 -0.77444607 0.86005843
-0.0079889921 -0.77428335 0.86008638
-0.0079890043 -0.77425164 0.86001211
-0.0079890192 -0.77423769 0.85992724
-0.0079890043 -0.77408206 0.8599481
-0.0079889847 -0.77390522 0.85998315
-0.0079889623 -0.77371424 0.86003232
-0.0079889409 -0.77352673 0.86007792
-0.0079889381 -0.77343136 0.860053
-0.0079889335 -0.77332532 0.86003864
-0.0079889335 -0.77323699 0.86000663
-0.0079889381 -0.77317339 0.85995704
-0.0079889437 -0.77311695 0.85990745
-0.0079889605 -0.77311003 0.85981548
-0.0079889754 -0.77309608 0.8597306
-0.0079889782 -0.77301836 0.85968804
-0.0079889717 -0.77290523 0.85968077
-0.0079889754 -0.77283818 0.8596347
-0.00798898 -0.77277458 0.85958511
-0.0079889782 -0.77267921 0.85956013
-0.00798898 -0.772605 0.85952109
-0.00798898 -0.77251667 0.85948914
-0.0079889856 -0.77246022 0.85943955
-0.0079889959 -0.77242148 0.85937226
-0.0079890024 -0.77236497 0.85931557
-0.0079890089 -0.77230853 0.85925895
-0.0079890201 -0.77228034 0.8591882
-0.0079890331 -0.7722522 0.85911036
-0.0079890322 -0.77216744 0.85908186
-0.0079890219 -0.77202952 0.8590852
-0.0079890322 -0.77199078 0.85901791
-0.0079890518 -0.77200156 0.85891539
-0.0079890601 -0.77195221 0.85885167
-0.007989049 -0.77181429 0.85886204
-0.0079890424 -0.77170116 0.85885477
-0.007989049 -0.77164471 0.85879809
-0.0079890462 -0.77154577 0.85877669
-0.0079890396 -0.77143264 0.85876942
-0.0079890471 -0.77137971 0.85870922
-0.0079890639 -0.7713728 0.85861725
-0.0079890741 -0.77133399 0.85855001
-0.0079890899 -0.77132362 0.85846162
-0.0079891076 -0.77132022 0.85836613
-0.0079890974 -0.77118939 0.85836941
-0.0079890955 -0.77109402 0.8583445
-0.0079891039 -0.77104813 0.85828429
-0.0079891011 -0.7709527 0.85825938
-0.0079891086 -0.77090335 0.85820276
-0.0079891253 -0.77089643 0.85811079
-0.0079891318 -0.77083999 0.8580541
-0.0079891356 -0.77076936 0.85801154
-0.0079891477 -0.77074122 0.8579337
-0.0079891551 -0.77069181 0.85787708
-0.0079891598 -0.77062827 0.85782743
-0.00798917 -0.77058953 0.85776019
-0.007989184 -0.77057201 0.85767883
-0.007989197 -0.77054381 0.85760105
-0.0079892008 -0.77047676 0.85755491
-0.0079892101 -0.77043444 0.8574912
-0.0079892222 -0.77040982 0.85741693
-0.0079892306 -0.77036047 0.85735321
-0.0079892324 -0.77028626 0.85731417
-0.0079892483 -0.77027583 0.85722572
-0.0079892818 -0.7703433 0.85707384
-0.0079893013 -0.77034706 0.85697132
-0.0079893013 -0.77025867 0.85693932
-0.0079893116 -0.77022702 0.85687208
-0.007989346 -0.770298 0.85671669
-0.007989374 -0.77034068 0.8565824
-0.0079893852 -0.77030897 0.85651517
-0.007989401 -0.77029502 0.8564232
-0.0079894261 -0.77032351 0.85630304
-0.0079894448 -0.77032369 0.85620403
-0.0079894476 -0.77025306 0.85616148
-0.0079894653 -0.77024972 0.85606605
-0.0079894932 -0.7702924 0.85593176
-0.0079895305 -0.77037758 0.85576928
-0.0079895621 -0.7704379 0.85562444
-0.0079895696 -0.77038503 0.85556424
-0.0079895845 -0.77037102 0.85547936
-0.0079896022 -0.77036411 0.85538036
-0.0079896143 -0.77033246 0.85530609
-0.0079896394 -0.77036804 0.85518593
-0.0079896757 -0.77044612 0.85502344
-0.0079908082 -0.77505028 0.85073984
-0.007990838 -0.77510357 0.85060209
-0.0079910345 -0.77592522 0.84986824
-0.0079911714 -0.77647769 0.84934598
-0.0079912385 -0.77670097 0.84907418
-0.0079912981 -0.77688527 0.848827
-0.0079913512 -0.77703768 0.84860456
-0.0079914173 -0.77725744 0.84833628
-0.0079914695 -0.77740985 0.84811383
-0.0079916855 -0.7777794 0.84711039
-0.0079917377 -0.77793187 0.84688795
-0.007991761 -0.77794975 0.8467713
-0.0079917861 -0.77797824 0.84665114
-0.0079918019 -0.77796429 0.84655923
-0.0079918355 -0.77802825 0.84640378
-0.00799191 -0.77783465 0.84594023
-0.0079919072 -0.77773219 0.84591532
-0.0079921391 -0.77852583 0.8449834
-0.0079921531 -0.77849776 0.84489852
-0.0079921596 -0.77844125 0.84484184
-0.0079921391 -0.77826089 0.8448804
-0.0079921298 -0.77812654 0.8448801
-0.0079921838 -0.77828252 0.84465414
-0.0079922052 -0.77829331 0.84454459
-0.0079922155 -0.77825105 0.84447378
-0.0079922248 -0.77820522 0.84440649
-0.0079923924 -0.77869797 0.84370387
-0.0079923701 -0.77851051 0.84374946
-0.0079929931 -0.77943873 0.84079194
-0.0079929875 -0.77932566 0.84077758
-0.0079931412 -0.77983242 0.84015274
-0.0079931403 -0.77973348 0.84012431
-0.007993116 -0.77953893 0.84017694
-0.0079931226 -0.77947539 0.84012026
-0.0079931747 -0.77962077 0.83989781
-0.0079932036 -0.77965993 0.83976001
-0.0079932278 -0.77967781 0.83963627
-0.0079932781 -0.77981609 0.83942086
-0.007993334 -0.77997565 0.83918428
-0.0079933405 -0.77991211 0.8391276
-0.0079933498 -0.77985919 0.83906031
-0.0079933451 -0.77974963 0.83904243
-0.0079933992 -0.7799021 0.83881295
-0.007993442 -0.78000498 0.83862573
-0.0079934923 -0.78013974 0.83840674
-0.0079934858 -0.78001601 0.83839595
-0.0079934895 -0.77994186 0.83834982
-0.0079935277 -0.78002346 0.83817673
-0.0079935407 -0.77999181 0.83809537
-0.007993564 -0.78000617 0.8379752
-0.0079935705 -0.77994263 0.83791852
-0.0079935752 -0.77987909 0.83786887
-0.0079935947 -0.77987224 0.83776277
-0.0079936367 -0.77997154 0.83757913
-0.0079936516 -0.77994341 0.83748716
-0.007993686 -0.78000736 0.83733171
-0.0079936963 -0.77996153 0.83725739
-0.0079936907 -0.77984488 0.8372466
-0.0079937093 -0.77984154 0.83714402
-0.007993741 -0.7798878 0.83699208
-0.0079937801 -0.77997297 0.83681548
-0.0079938173 -0.78004402 0.8366459
-0.0079938266 -0.77999818 0.83657867
-0.0079938453 -0.77998775 0.83647609
-0.0079938909 -0.78009772 0.83627474
-0.0079939235 -0.78015107 0.83612281
-0.0079939337 -0.78010875 0.83605206
-0.0079939272 -0.77998501 0.83604121
-0.0079939561 -0.78002417 0.83590341
-0.0079939868 -0.78006685 0.83575499
-0.0079940092 -0.78007418 0.83564186
-0.0079940604 -0.78020537 0.83541936
-0.0079940781 -0.78019142 0.83532035
-0.0079940846 -0.78013498 0.83526367
-0.0079940958 -0.78009272 0.83518583
-0.0079941098 -0.78006458 0.83510089
-0.0079941629 -0.78020287 0.83487135
-0.0079942197 -0.78036594 0.83463126
-0.007994228 -0.7803095 0.83456749
-0.0079942448 -0.78029203 0.834472
-0.0079942411 -0.780186 0.8344506
-0.0079942467 -0.78011888 0.83439744
-0.0079942849 -0.78019345 0.83422434
-0.0079943249 -0.78027868 0.83404064
-0.0079943258 -0.78019035 0.8340016
-0.0079943417 -0.78016931 0.83390963
-0.0079943705 -0.78020138 0.83377177
-0.0079944059 -0.78026533 0.83360928
-0.0079944236 -0.78025138 0.83351028
-0.0079944497 -0.78027636 0.83337951
-0.0079945 -0.78040403 0.83316052
-0.0079945307 -0.78044677 0.8330121
-0.0079945233 -0.78032303 0.83300835
-0.0079945754 -0.78045779 0.83278233
-0.0079946304 -0.78060675 0.83254218
-0.0079946378 -0.78054672 0.83248198
-0.0079946071 -0.78032386 0.83256286
-0.0079945764 -0.78010094 0.83264375
-0.0079946341 -0.7802605 0.83239305
-0.0079946946 -0.78043073 0.83213878
-0.0079947058 -0.78038841 0.83206093
-0.0079947235 -0.78037447 0.83196193
-0.0079947496 -0.78039593 0.83183467
-0.0079947831 -0.7804563 0.83167571
-0.0079948287 -0.78055924 0.83147436
-0.0079948604 -0.78060549 0.83132243
-0.0079948669 -0.78054196 0.83126575
-0.0079948436 -0.78035092 0.83131486
-0.0079948148 -0.7801351 0.83138871
-0.0079948734 -0.78029466 0.83113801
-0.0079949312 -0.78045779 0.83089083
-0.0079949973 -0.78064924 0.8306154
-0.0079949601 -0.78039801 0.83071744
-0.0079949731 -0.78027445 0.83060056
-0.0079950178 -0.78037381 0.83040273
-0.0079950606 -0.78046966 0.83020848
-0.0079950765 -0.78044152 0.83011651
-0.0079950988 -0.78045237 0.82999986
-0.0079951081 -0.78039944 0.82993257
-0.0079951286 -0.7803961 0.82982296
-0.0079951994 -0.78060883 0.82952636
-0.0079952264 -0.78063732 0.82939208
-0.0079952916 -0.78082168 0.82911664
-0.007995313 -0.78082192 0.82900351
-0.0079952953 -0.78065568 0.82903504
-0.0079952842 -0.78051424 0.82904184
-0.0079953168 -0.78056407 0.82888633
-0.0079953764 -0.78073424 0.82863212
-0.0079954136 -0.7807982 0.82846254
-0.0079954769 -0.78098959 0.8281942
-0.0079954928 -0.78096151 0.82810223
-0.0079954965 -0.78088731 0.8280561
-0.0079954974 -0.78079903 0.82801706
-0.0079955198 -0.78080279 0.82790041
-0.0079955487 -0.78083837 0.82775903
-0.0079955636 -0.78080672 0.82767057
-0.0079955859 -0.78081405 0.82755041
-0.0079956185 -0.78086025 0.82739842
-0.0079956343 -0.7808392 0.82730645
-0.0079956669 -0.78079718 0.82711548
-0.0079956325 -0.78055656 0.82720697
-0.007995652 -0.78045428 0.82706887
-0.0079956828 -0.7804935 0.82691693
-0.0079957535 -0.78070968 0.82662386
-0.0079958839 -0.78117734 0.82610857
-0.0079958495 -0.78093678 0.82620007
-0.0079958532 -0.78085905 0.82615042
-0.0079958653 -0.78081679 0.82607251
-0.0079959463 -0.78107548 0.82573712
-0.0079959463 -0.78098011 0.82570517
-0.0079959473 -0.78089178 0.82566607
-0.0079959771 -0.78093094 0.82552123
-0.0079960534 -0.78116488 0.82520342
-0.0079960581 -0.78109074 0.82515025
-0.0079960264 -0.7806806 0.82516366
-0.0079960665 -0.78075516 0.82498348
-0.0079961764 -0.78104246 0.8245067
-0.0079961903 -0.78101081 0.82441825
-0.0079962108 -0.78100038 0.82430863
-0.0079962043 -0.78088373 0.82429785
-0.0079962034 -0.7807883 0.82426584
-0.0079962602 -0.78094083 0.82402217
-0.0079963189 -0.78109682 0.8237679
-0.0079963375 -0.78107935 0.82366532
-0.0079963626 -0.78109372 0.82353806
-0.0079964669 -0.78144807 0.82311445
-0.0079964865 -0.78144121 0.82300842
-0.0079964567 -0.78122187 0.82308578
-0.0079964763 -0.78121144 0.82297611
-0.0079965405 -0.7810142 0.82256567
-0.007996575 -0.78107113 0.82240313
-0.0079966038 -0.78109968 0.82226175
-0.0079966811 -0.78133363 0.82193691
-0.0079966076 -0.7809301 0.82217658
-0.0079966933 -0.78119946 0.82182354
-0.0079967258 -0.78124571 0.82166451
-0.0079967771 -0.78136986 0.82144201
-0.0079968059 -0.78139842 0.82130063
-0.0079967482 -0.78106219 0.82148033
-0.0079968832 -0.78135329 0.82087272
-0.0079969112 -0.78137475 0.8207314
-0.0079969335 -0.78137851 0.8206147
-0.0079969084 -0.78117687 0.82067442
-0.0079969633 -0.78131872 0.82043427
-0.0079969792 -0.78128707 0.82033879
-0.0079969633 -0.78112793 0.82036322
-0.0079969708 -0.78106797 0.82030302
-0.0079970229 -0.78119564 0.82006991
-0.0079971664 -0.78170228 0.81950164
-0.0079972129 -0.78180522 0.8192932
-0.0079972008 -0.78166026 0.81930357
-0.0079972139 -0.781618 0.81921864
-0.0079972129 -0.78152257 0.81918663
-0.0079972222 -0.78146964 0.81911933
-0.0079972036 -0.78129637 0.81915087
-0.007997198 -0.78118324 0.8191365
-0.0079972558 -0.78132868 0.81888574
-0.0079973144 -0.78148472 0.81863147
-0.0079972735 -0.78121579 0.81875116
-0.0079973163 -0.78130102 0.81855333
-0.0079973647 -0.78141105 0.81833786
-0.0079974076 -0.7814998 0.81814361
-0.0079974672 -0.78155333 0.81785023
-0.0079974104 -0.78122777 0.81802642
-0.0079974104 -0.78113234 0.81799442
-0.007997591 -0.78169239 0.8172459
-0.0079975864 -0.78158277 0.81722802
-0.0079975966 -0.781537 0.81715369
-0.0079977019 -0.78178179 0.81669098
-0.0079977345 -0.78154188 0.81642896
-0.0079977503 -0.78151375 0.8163299
-0.0079977568 -0.78144318 0.81627321
-0.0079978127 -0.78158504 0.81602597
-0.0079978602 -0.78168446 0.81581402
-0.0079978425 -0.78151822 0.81584555
-0.0079978546 -0.78147238 0.81576413
-0.0079981433 -0.78210062 0.81446773
-0.007998053 -0.78163332 0.81477094
-0.0079980735 -0.78162646 0.81465781
-0.0079981135 -0.78169751 0.81447405
-0.0079981349 -0.78168714 0.8143574
-0.0079984013 -0.78202897 0.81307107
-0.0079983929 -0.78189814 0.81306732
-0.0079983911 -0.7817992 0.81303883
-0.0079984199 -0.78163344 0.81282288
-0.0079986146 -0.78223598 0.81201786
-0.0079986127 -0.78213704 0.81198943
-0.0079986406 -0.78215849 0.81184804
-0.007998623 -0.78199226 0.81187952
-0.0079986379 -0.78195709 0.81178755
-0.0079986649 -0.78197151 0.8116532
-0.007998704 -0.78203195 0.81146592
-0.0079987952 -0.78231198 0.81108814
-0.007999423 -0.7821945 0.80771148
-0.0079994099 -0.78203893 0.80772537
-0.0080034584 -0.7846545 0.78722763
-0.0080034286 -0.78444225 0.787305
-0.0080032665 -0.78373402 0.78789765
-0.0080032861 -0.78370947 0.78778803
-0.0080059767 -0.78634351 0.7744993
-0.0080059841 -0.78626937 0.774432
-0.0080061946 -0.78663534 0.77345335
-0.0080062309 -0.78666753 0.77327305
-0.0080062989 -0.78681302 0.77296573
-0.0080063371 -0.78674984 0.77273935
-0.0080063324 -0.78663319 0.77272147
-0.0080063809 -0.78670788 0.77249181
-0.0080064991 -0.78673375 0.77187312
-0.0080065653 -0.78687572 0.7715764
-0.0080065299 -0.78634191 0.77156478
-0.008006705 -0.78677464 0.77079487
-0.0080066668 -0.78653401 0.77090758
-0.0080101406 -0.78955024 0.75361025
-0.010014762 -0.79236877 0.86062348
-0.010014757 -0.79226273 0.86060208
-0.010014755 -0.7921744 0.86056304
-0.010014751 -0.79207551 0.86053455
-0.010014731 -0.79191279 0.86054844
-0.010014735 -0.79184926 0.86049879
-0.010014704 -0.79164058 0.86054438
-0.010014684 -0.7914744 0.86056173
-0.010014697 -0.79144627 0.86048388
-0.010014703 -0.79138625 0.86042368
-0.010014686 -0.79123425 0.860434
-0.010014666 -0.79107153 0.86044782
-0.010014647 -0.79091245 0.86046523
-0.010014633 -0.79076749 0.86046141
-0.010014615 -0.79061544 0.86047173
-0.010014608 -0.79050589 0.86045384
-0.010014612 -0.79043877 0.86040068
-0.010014621 -0.79039645 0.86033696
-0.010014569 -0.79009926 0.86044246
-0.01001456 -0.7899791 0.86042809
-0.010014532 -0.78978455 0.86046666
-0.010014514 -0.78963256 0.86047691
-0.010014494 -0.78946632 0.86049432
-0.010014509 -0.78944528 0.86040938
-0.0100145 -0.78933215 0.86039507
-0.010014459 -0.78907746 0.86047238
-0.010014453 -0.78897142 0.86045092
-0.010014439 -0.78883356 0.86044717
-0.01001445 -0.78879833 0.86037636
-0.010014452 -0.78872418 0.86033028
-0.010014416 -0.78849071 0.86039346
-0.010014373 -0.78823602 0.86047786
-0.010014362 -0.78811228 0.86046702
-0.010014337 -0.78792483 0.86049849
-0.010014326 -0.78780109 0.86048764
-0.010014315 -0.78767383 0.86048031
-0.010014307 -0.7875607 0.860466
-0.010014294 -0.78742993 0.86046219
-0.010014251 -0.78717166 0.86054301
-0.010014272 -0.78717542 0.86044049
-0.01001427 -0.78708708 0.86040848
-0.01001424 -0.7868855 0.86045408
-0.010014225 -0.78674048 0.86045736
-0.010014213 -0.78660613 0.86045003
-0.010014217 -0.78654617 0.86039686
-0.0100142 -0.78639412 0.86040723
-0.010014201 -0.78631639 0.86036462
-0.010014189 -0.78618914 0.86035734
-0.01001415 -0.78594857 0.86042762
-0.010014116 -0.78572577 0.86048728
-0.010014101 -0.78558433 0.86048698
-0.010014102 -0.78550661 0.86044443
-0.010014094 -0.78539705 0.86042655
-0.010014076 -0.78524148 0.86044043
-0.010014053 -0.78506112 0.86046481
-0.010014037 -0.78491968 0.86047161
-0.010014039 -0.78484905 0.86042202
-0.010014046 -0.78479964 0.86036533
-0.010014041 -0.78469718 0.86034036
-0.010014041 -0.78461242 0.8602978
-0.010014068 -0.78464442 0.86018121
-0.010014074 -0.78458798 0.86012453
-0.010014041 -0.78437573 0.86018068
-0.010013991 -0.78408915 0.86028266
-0.010013974 -0.78394067 0.86028945
-0.010013964 -0.78381693 0.86027861
-0.010013949 -0.78367907 0.86028188
-0.010013911 -0.7834385 0.86035216
-0.010013876 -0.78321564 0.86041182
-0.0100139 -0.7832371 0.86030579
-0.010013936 -0.78330451 0.86016101
-0.010013917 -0.78314894 0.86017483
-0.01001389 -0.78296149 0.86021334
-0.010013879 -0.78283066 0.86020255
-0.010013863 -0.78268921 0.86020935
-0.010013854 -0.78257257 0.8601985
-0.01001387 -0.78255862 0.86011362
-0.010013879 -0.78251278 0.86004633
-0.010013849 -0.78230762 0.8600955
-0.010013788 -0.78198212 0.86022919
-0.010013745 -0.78172737 0.86031359
-0.010013725 -0.7815612 0.86033094
-0.010013736 -0.781533 0.86026019
-0.010013741 -0.78146946 0.8602035
-0.010013748 -0.78142011 0.86014682
-0.010013753 -0.78136009 0.86009371
-0.010013727 -0.78117615 0.8601287
-0.010013703 -0.78099936 0.86015666
-0.010013682 -0.7808367 0.86017758
-0.010013673 -0.78072006 0.8601597
-0.010013671 -0.78062814 0.8601312
-0.010013646 -0.78044778 0.86016268
-0.010013627 -0.78029221 0.8601765
-0.010013617 -0.78017199 0.86016923
-0.010013612 -0.78007305 0.8601408
-0.010013614 -0.78000242 0.86009824
-0.010013577 -0.77977252 0.86016494
-0.01001356 -0.7796275 0.86017531
-0.010013566 -0.77957463 0.86011505
-0.01001356 -0.77947211 0.86009723
-0.010013554 -0.77937317 0.86007583
-0.010013529 -0.77919632 0.86011082
-0.010013506 -0.77902657 0.86013883
-0.010013483 -0.77885681 0.86016679
-0.010013465 -0.77870828 0.86018062
-0.010013454 -0.77858454 0.86017686
-0.010013442 -0.77846432 0.86016959
-0.010013426 -0.77831936 0.8601799
-0.010013416 -0.77820271 0.86016905
-0.010013416 -0.77812147 0.86013001
-0.010013404 -0.77799773 0.86012626
-0.010013404 -0.77791649 0.86008722
-0.010013402 -0.77783525 0.86005527
-0.01001339 -0.77770799 0.86004794
-0.010013358 -0.77749926 0.86010766
-0.010013324 -0.77729052 0.86016738
-0.010013314 -0.77717745 0.86016005
-0.010013335 -0.77718115 0.86005753
-0.010013335 -0.77709991 0.86001855
-0.010013311 -0.77692658 0.86005002
-0.010013307 -0.77683824 0.86002511
-0.010013271 -0.77661538 0.86009187
-0.010013252 -0.77646333 0.86010921
-0.010013256 -0.77640331 0.8600561
-0.010013245 -0.77627963 0.86005235
-0.010013225 -0.776124 0.86007327
-0.010013216 -0.77601087 0.8600589
-0.010013216 -0.77593672 0.86001986
-0.010013194 -0.77576697 0.86004782
-0.010013166 -0.77558303 0.8600899
-0.010013163 -0.77549821 0.86006147
-0.010013151 -0.77537096 0.86006123
-0.010013149 -0.77528614 0.8600257
-0.010013154 -0.77522618 0.8599726
-0.010013136 -0.77507764 0.85998642
-0.010013111 -0.77490431 0.86002499
-0.010013083 -0.77472043 0.86006707
-0.010013057 -0.77454001 0.86010563
-0.010013049 -0.77442688 0.86009127
-0.010013056 -0.77438104 0.86003107
-0.010013063 -0.77433163 0.85997444
-0.010013047 -0.77419025 0.85998124
-0.010013028 -0.7740382 0.85999858
-0.01001301 -0.77388966 0.86001247
-0.010013009 -0.77381194 0.85997701
-0.010013024 -0.77379441 0.85989565
-0.010013018 -0.77369189 0.85987777
-0.010013001 -0.77354693 0.85988808
-0.01001298 -0.77338779 0.85991251
-0.010012953 -0.77320385 0.8599546
-0.010012962 -0.77316511 0.85988736
-0.01001297 -0.77312279 0.85982364
-0.010012961 -0.77300966 0.85981637
-0.010012963 -0.77293551 0.85977024
-0.010012966 -0.77287549 0.85972422
-0.010012957 -0.77276242 0.85970986
-0.010012956 -0.77268469 0.85967433
-0.010012962 -0.77262467 0.85962117
-0.010012963 -0.77255404 0.85957861
-0.010012974 -0.77251881 0.85950786
-0.010012991 -0.77250838 0.85941947
-0.010013002 -0.77247316 0.85934865
-0.010012996 -0.77237421 0.85932726
-0.010012984 -0.77225047 0.8593235
-0.010012974 -0.77213734 0.85931623
-0.010012969 -0.77204192 0.85929132
-0.010012972 -0.7719748 0.85924518
-0.010012991 -0.77196795 0.85915327
-0.010013008 -0.77196103 0.8590613
-0.010013008 -0.77188689 0.85902232
-0.010013007 -0.77179855 0.85899031
-0.010013003 -0.77170664 0.85896182
-0.010012993 -0.77159351 0.85895455
-0.010012999 -0.77153707 0.85889786
-0.010013019 -0.77154082 0.85880244
-0.010013031 -0.77150911 0.85872817
-0.010013033 -0.771442 0.85868204
-0.01001304 -0.77139264 0.85862541
-0.010013035 -0.77129722 0.85860044
-0.010013022 -0.77116638 0.85860372
-0.010013028 -0.77111346 0.85854357
-0.010013045 -0.77110302 0.85845512
-0.010013058 -0.77107841 0.85838085
-0.010013064 -0.77102548 0.85832065
-0.010013063 -0.7709372 0.85828865
-0.010013075 -0.77091259 0.85821438
-0.010013086 -0.77087736 0.85814357
-0.010013079 -0.77077484 0.85812569
-0.010013066 -0.77064759 0.85812545
-0.010013072 -0.77059114 0.85806882
-0.010013091 -0.77059484 0.85797334
-0.010013104 -0.7705667 0.85789549
-0.010013114 -0.77052438 0.85783178
-0.010013118 -0.77046436 0.85777867
-0.010013113 -0.77036542 0.85775727
-0.010013101 -0.77024519 0.85775703
-0.010013111 -0.77020997 0.85768622
-0.010013135 -0.77022791 0.85757667
-0.010013157 -0.7702316 0.85747415
-0.010013171 -0.77020699 0.85739279
-0.010013188 -0.77019656 0.85730439
-0.010013212 -0.77021444 0.85719484
-0.010013229 -0.77020401 0.85710639
-0.010013232 -0.77013338 0.8570568
-0.010013237 -0.77007693 0.85700721
-0.010013255 -0.77007353 0.85691172
-0.010013276 -0.77007371 0.85681272
-0.010013293 -0.77006334 0.85672432
-0.010013331 -0.77013075 0.85657239
-0.010013372 -0.77020884 0.85640991
-0.010013399 -0.77023381 0.85629332
-0.010013403 -0.77018088 0.85624015
-0.010013416 -0.77015275 0.85616231
-0.010013469 -0.77026981 0.85596806
-0.010013487 -0.77026641 0.85587263
-0.01001349 -0.77019936 0.85582656
-0.010013505 -0.77018183 0.8557452
-0.010013515 -0.77014303 0.85567796
-0.010013529 -0.77011847 0.85559654
-0.010013557 -0.77015054 0.85547286
-0.010013605 -0.77025694 0.85528922
-0.010013632 -0.77028191 0.85517263
-0.010013657 -0.77029628 0.8550595
-0.010013689 -0.77034247 0.8549217
-0.010013748 -0.77049136 0.85470986
-0.010013902 -0.77099437 0.85420877
-0.010015219 -0.77559131 0.85004544
-0.010015307 -0.77585351 0.84974188
-0.010015437 -0.77627504 0.84931487
-0.010015527 -0.77654427 0.84901136
-0.010015579 -0.77666485 0.84881359
-0.010015609 -0.7767005 0.84868634
-0.010015645 -0.7767573 0.84853798
-0.010015821 -0.77735239 0.84797341
-0.010015831 -0.77731717 0.8479026
-0.010015888 -0.77745187 0.84769076
-0.010015882 -0.77718687 0.8475948
-0.010016385 -0.77838898 0.84572673
-0.01001638 -0.77829355 0.84570181
-0.010016321 -0.77782673 0.84575754
-0.010016331 -0.77778447 0.84568673
-0.01001638 -0.77789086 0.84550309
-0.010016439 -0.77803272 0.84528416
-0.010016482 -0.7781179 0.84511459
-0.010016492 -0.77807206 0.8450473
-0.010016475 -0.7779271 0.84505767
-0.01001648 -0.77786708 0.8450045
-0.010016526 -0.77796286 0.84482437
-0.010016586 -0.77810824 0.84460193
-0.010016621 -0.77816153 0.84445703
-0.010016623 -0.77809089 0.84441447
-0.010016643 -0.77808404 0.84430844
-0.010016664 -0.77808422 0.84420943
-0.010016674 -0.7780419 0.84413862
-0.010017475 -0.77935976 0.84087074
-0.010017488 -0.77933162 0.84079289
-0.010017488 -0.77924687 0.84075034
-0.010017497 -0.77919745 0.84068656
-0.01001772 -0.77954924 0.83976448
-0.010017735 -0.77952111 0.83967954
-0.010017744 -0.77947527 0.83961231
-0.010017781 -0.77952856 0.83946037
-0.010017812 -0.77956069 0.83932257
-0.010017795 -0.77941918 0.83933645
-0.010017717 -0.77904761 0.83953017
-0.010017891 -0.77961791 0.83896202
-0.010017928 -0.77966768 0.83880657
-0.010017972 -0.77975643 0.83863348
-0.010018008 -0.7798062 0.83848506
-0.010018035 -0.77982408 0.83836138
-0.010018065 -0.77985615 0.83823061
-0.010018091 -0.77987051 0.83811045
-0.010018119 -0.77989197 0.83798319
-0.010018076 -0.7796514 0.83807468
-0.010018179 -0.77995259 0.83771813
-0.010018224 -0.78003776 0.83754152
-0.010018234 -0.77999192 0.83746719
-0.010018217 -0.77985048 0.83748108
-0.01001824 -0.77984715 0.83737147
-0.010018257 -0.77983671 0.83727598
-0.010018234 -0.77966344 0.83730745
-0.010018238 -0.77959639 0.83725435
-0.010018285 -0.77969217 0.83706713
-0.010018319 -0.77973485 0.8369258
-0.010018371 -0.77984482 0.83672446
-0.010018425 -0.77995837 0.8365196
-0.010018443 -0.7799409 0.83642411
-0.010018453 -0.77989858 0.83635336
-0.010018487 -0.77994835 0.83620495
-0.010018528 -0.78001231 0.8360424
-0.01001855 -0.78000897 0.83593279
