# .PCD v0.7 - Point Cloud Data file format
VERSION 0.7
FIELDS x y z
SIZE 4 4 4
TYPE F F F
COUNT 1 1 1
WIDTH 1380
HEIGHT 1
VIEWPOINT 0 0 0 1 0 0 0
POINTS 1380
DATA ascii
0.025953308 -0.78648949 0.76292354
0.025953261 -0.78678787 0.76213205
0.025953265 -0.78659356 0.76204336
0.025953257 -0.7866044 0.76187718
0.025953297 -0.78569913 0.76198173
0.025953028 -0.7869699 0.75698107
0.025953021 -0.78695601 0.75683963
0.025953017 -0.78692436 0.75672293
0.025952755 -0.78646511 0.75029808
0.025952388 -0.78796911 0.74328613
0.025952058 -0.78828192 0.73607773
0.025951769 -0.78896391 0.73011792
0.023877664 -0.79164368 0.86099464
0.023877682 -0.79153407 0.86097682
0.023877682 -0.79150593 0.86089897
0.023877693 -0.79143178 0.8608529
0.023877721 -0.79129034 0.8608526
0.023877719 -0.79127282 0.8607713
0.0238779 -0.79045904 0.86113757
0.0238779 -0.79042733 0.86105621
0.023878021 -0.78973472 0.8608641
0.023878157 -0.7890839 0.86101854
0.023878174 -0.78898495 0.86099011
0.02387823 -0.78862119 0.86075968
0.023878243 -0.78853995 0.86072063
0.023878366 -0.7879914 0.86100608
0.023878366 -0.78796327 0.86092824
0.023878388 -0.7878502 0.86091393
0.023878446 -0.78757423 0.86100537
0.023878537 -0.7870301 0.86080647
0.023878578 -0.78683555 0.86084503
0.02387861 -0.78667647 0.86085534
0.023878599 -0.78669435 0.86074579
0.023878597 -0.78667682 0.86066443
0.023878746 -0.78602564 0.86101687
0.023878742 -0.78601164 0.86093199
0.023878772 -0.78583145 0.86086452
0.023878787 -0.78574312 0.86083257
0.023878759 -0.78583533 0.86067009
0.023878757 -0.7858178 0.86058873
0.023878809 -0.7855702 0.8606661
0.023878854 -0.78535795 0.86071521
0.023878859 -0.78530502 0.86065501
0.023878878 -0.7852025 0.8606301
0.023878947 -0.78488415 0.86075681
0.023879014 -0.7845763 0.86087298
0.023879018 -0.78453755 0.86080575
0.023879014 -0.78452355 0.86072087
0.023879044 -0.78437507 0.86072767
0.023879098 -0.7841239 0.86080855
0.023879105 -0.78406745 0.86075193
0.023879101 -0.78405696 0.86066353
0.023879111 -0.78398991 0.86061037
0.023879144 -0.78382015 0.86063838
0.023879191 -0.78360081 0.86069453
0.023879202 -0.78352314 0.86065197
0.02387921 -0.78347021 0.86059177
0.023879211 -0.78343499 0.86052102
0.023879237 -0.78330058 0.86052078
0.023879347 -0.7827841 0.86068964
0.023879493 -0.78214711 0.86104208
0.023879416 -0.78241646 0.86066073
0.023879411 -0.78241664 0.86056876
0.023879405 -0.78240973 0.86047685
0.023879424 -0.78230369 0.86045545
0.023879474 -0.7820667 0.86052221
0.023879485 -0.78199607 0.86047965
0.023879495 -0.78193247 0.86043006
0.023879563 -0.78161412 0.86055678
0.023879571 -0.7815612 0.86049658
0.02387958 -0.7814905 0.86045408
0.023879588 -0.78143406 0.8603974
0.023879642 -0.7811864 0.86047477
0.023879683 -0.78098482 0.86052746
0.023879699 -0.78088939 0.86049545
0.023879731 -0.78072673 0.86051637
0.023879793 -0.78044724 0.86061847
0.023879793 -0.78042263 0.86053711
0.023879813 -0.78030598 0.86052626
0.023879884 -0.77998406 0.86066359
0.023879917 -0.77982491 0.86068809
0.023879925 -0.77976131 0.8606385
0.023879943 -0.77965885 0.86061358
0.023879975 -0.77949971 0.86063802
0.023879997 -0.77938658 0.86062372
0.023880007 -0.77931947 0.86057764
0.023880048 -0.7791214 0.86062682
0.023880098 -0.77888441 0.8607077
0.023880111 -0.77880317 0.86066866
0.02388012 -0.77874315 0.86061555
0.023880135 -0.77865124 0.86058712
0.023880158 -0.77853107 0.86057985
0.023880195 -0.77835071 0.86061841
0.023880234 -0.77816325 0.86065698
0.023880258 -0.77803952 0.86065322
0.023880301 -0.77783436 0.86070943
0.023880331 -0.7776823 0.86072689
0.023880327 -0.77767181 0.86063844
0.02388032 -0.77767551 0.86053592
0.023880336 -0.77758366 0.86050749
0.02388039 -0.777336 0.86059898
0.023880443 -0.7770884 0.86068344
0.023880465 -0.7769717 0.86067265
0.023880471 -0.77692235 0.86061597
0.023880506 -0.7767455 0.86065102
0.023880379 -0.77724832 0.86017811
0.02388048 -0.776806 0.86041427
0.023880519 -0.77661502 0.86045635
0.023880532 -0.77653372 0.8604244
0.023880577 -0.77632153 0.86048061
0.023880608 -0.7761659 0.86050153
0.023880618 -0.77609885 0.86045545
0.023880629 -0.77603173 0.86040938
0.023880646 -0.77593279 0.86038798
0.023880688 -0.77573115 0.86044067
0.023880705 -0.7756322 0.86041933
0.023880713 -0.77557921 0.86036623
0.02388077 -0.77531391 0.86046827
0.023880769 -0.77529639 0.86038691
0.02388086 -0.77486128 0.86051702
0.023880882 -0.77474105 0.86050969
0.023880925 -0.77454299 0.86056596
0.023880942 -0.77444756 0.86054105
0.02388096 -0.77434152 0.86051965
0.023880973 -0.77426028 0.8604877
0.023880981 -0.77420384 0.86043102
0.023880981 -0.77418274 0.86035317
0.023880979 -0.77416521 0.86027187
0.023880986 -0.77410871 0.86021519
0.023881005 -0.77400267 0.86020088
0.023881029 -0.77387893 0.86019713
0.023881029 -0.77384722 0.8601228
0.023881018 -0.7738722 0.86000621
0.023881014 -0.77386171 0.85991776
0.023881016 -0.77382648 0.85984701
0.023881029 -0.77374882 0.85981154
0.023881044 -0.7736569 0.85978305
0.023881054 -0.77359688 0.85972995
0.02388107 -0.77349794 0.85970855
0.023881104 -0.7733317 0.85974008
0.023881121 -0.77323627 0.85971516
0.023881117 -0.77322936 0.85962325
0.023881117 -0.77320474 0.85954899
0.023881128 -0.77312708 0.85950643
0.023881134 -0.77308118 0.85944623
0.023881137 -0.77304244 0.85937899
0.023881145 -0.77298242 0.85932583
0.023881156 -0.77290821 0.85928684
0.02388118 -0.77278095 0.85928661
0.02388121 -0.77263242 0.85930049
0.023881223 -0.77255118 0.85926855
0.023881231 -0.77249825 0.85920835
0.023881236 -0.77245235 0.85914814
0.023881238 -0.77241361 0.85908091
0.023881242 -0.77237129 0.85901719
0.02388124 -0.77235729 0.85893232
0.02388124 -0.77233267 0.85885096
0.023881257 -0.77223372 0.85882962
0.023881266 -0.77216661 0.85878348
0.023881262 -0.77215618 0.85869509
0.023881275 -0.77208197 0.85865611
0.023881309 -0.77191222 0.85869116
0.023881335 -0.77178138 0.85869449
0.023881335 -0.77175325 0.85861665
0.023881327 -0.77175695 0.85851413
0.023881329 -0.7717253 0.8584398
0.023881337 -0.77166879 0.85839021
0.02388134 -0.77162999 0.85832298
0.02388134 -0.77159834 0.85824865
0.023881327 -0.77162683 0.85812855
0.023881322 -0.77162695 0.85802954
0.023881346 -0.77149969 0.85802931
0.023881363 -0.77140075 0.85800791
0.023881359 -0.77139384 0.857916
0.02388135 -0.77140814 0.85780996
0.02388135 -0.77138352 0.8577286
0.023881346 -0.77137309 0.85764021
0.023881348 -0.77133429 0.85757291
0.023881359 -0.77126718 0.85752684
0.023881357 -0.77124965 0.85744554
0.023881346 -0.77126753 0.85732889
0.023881324 -0.77133495 0.85718405
0.023881307 -0.77137411 0.85705328
0.023881292 -0.77140611 0.8569296
0.023881285 -0.77140981 0.85682708
0.023881292 -0.77135688 0.85677397
0.023881299 -0.77129686 0.85672081
0.023881303 -0.77125806 0.85665357
0.023881298 -0.77125823 0.85655457
0.023881273 -0.77132571 0.85640264
0.023881253 -0.77138603 0.8562578
0.023881238 -0.77142513 0.85612708
0.023881225 -0.77144659 0.85601395
0.023881227 -0.77141839 0.85593611
0.023881232 -0.77136195 0.85587949
0.023881217 -0.77139753 0.85575223
0.023881193 -0.77147555 0.85559684
0.023881175 -0.77152526 0.85545546
0.023881109 -0.77176267 0.85516953
0.023881052 -0.7719788 0.85490471
0.02388072 -0.77328902 0.85367656
0.023879761 -0.77712387 0.85025722
0.023879724 -0.77724791 0.85006297
0.023879683 -0.77739328 0.8498475
0.023879627 -0.77759522 0.84958977
0.023879571 -0.77780074 0.84933555
0.023879508 -0.77803457 0.84905314
0.023879452 -0.77824003 0.84879184
0.023879422 -0.77833229 0.84861523
0.0238794 -0.77839971 0.8484633
0.023879398 -0.77837861 0.84837842
0.023879385 -0.77840358 0.84826177
0.023879183 -0.77896112 0.84680963
0.023879191 -0.77890468 0.846753
0.023879185 -0.77889776 0.84665394
0.023879066 -0.77936172 0.84618455
0.023879018 -0.77953184 0.8459515
0.023879027 -0.77947181 0.84589833
0.023879088 -0.77918881 0.84601098
0.023879107 -0.77908278 0.84598958
0.023879061 -0.77924579 0.84576362
0.02387902 -0.77939463 0.84554464
0.023879031 -0.77932048 0.84549856
0.023878522 -0.78043133 0.84094667
0.023878522 -0.7804032 0.8408618
0.023878513 -0.78041047 0.84074867
0.023878347 -0.7810058 0.83995062
0.023878437 -0.78060943 0.84016919
0.02387844 -0.78056711 0.84009135
0.023878437 -0.78055316 0.83999938
0.023878314 -0.78102422 0.83950871
0.023878353 -0.78083676 0.83955437
0.023878364 -0.78076613 0.83950478
0.023878349 -0.78080171 0.83937049
0.023878345 -0.78078419 0.839275
0.023878351 -0.78070313 0.83912987
0.023878312 -0.78083783 0.83891094
0.02387826 -0.78101861 0.83866018
0.023878232 -0.78110731 0.83848006
0.023878247 -0.78101546 0.83844453
0.023878278 -0.78085983 0.83846545
0.023878332 -0.78061575 0.83856052
0.023878213 -0.78107262 0.83807695
0.023878252 -0.78087807 0.83812964
0.023878247 -0.78087825 0.83802354
0.023878226 -0.78093153 0.83787161
0.02387823 -0.7808857 0.83780438
0.023878193 -0.78100985 0.83758891
0.02387814 -0.78119409 0.8373276
0.023878142 -0.78115535 0.83725327
0.023878153 -0.78108472 0.83720368
0.023878139 -0.78111678 0.83707291
0.023878153 -0.78102487 0.83703738
0.023878176 -0.7809118 0.83702308
0.023878163 -0.7809332 0.83689582
0.023878131 -0.78103608 0.83670151
0.023878111 -0.78108585 0.83655316
0.023878094 -0.78112501 0.83640826
0.023878075 -0.78117472 0.83625984
0.02387807 -0.78116781 0.83616084
0.023878099 -0.78101575 0.83617824
0.02387809 -0.78102303 0.83605802
0.023878081 -0.78103739 0.83593786
0.023878079 -0.78101635 0.83584589
0.023878051 -0.78110147 0.83566928
0.023878051 -0.78106982 0.83558083
0.02387804 -0.78108418 0.83546066
0.023878047 -0.78102773 0.83539689
0.023877997 -0.78120136 0.83514619
0.023878014 -0.78110951 0.83511066
0.023878042 -0.78096098 0.83512455
0.023877973 -0.78121608 0.8348068
0.023877915 -0.78141809 0.83452076
0.023877922 -0.78136516 0.83446056
0.023877915 -0.78136182 0.83435094
0.023877919 -0.78132308 0.83427662
0.023877837 -0.7816242 0.83391297
0.023877835 -0.78156793 0.83373612
0.023877889 -0.78132027 0.83383471
0.02387795 -0.78104782 0.83395094
0.023877958 -0.78098786 0.83389068
0.023877922 -0.78109777 0.83368939
0.023877883 -0.78122902 0.83346683
0.023877885 -0.78119731 0.83338547
0.023877824 -0.78138536 0.83300751
0.02387785 -0.78125101 0.83300728
0.02387787 -0.78113788 0.83299291
0.023877831 -0.78126556 0.83277392
0.023877786 -0.78141797 0.83253729
0.023877786 -0.78138983 0.83244532
0.0238778 -0.78131211 0.83240277
0.023877786 -0.78133005 0.83227199
0.023877755 -0.78143287 0.83207774
0.023877734 -0.78148264 0.83192223
0.023877705 -0.7815749 0.83173853
0.023877682 -0.78163528 0.83157247
0.023877721 -0.78145134 0.83161461
0.023877719 -0.7814303 0.83152264
0.023877703 -0.78146589 0.83138126
0.023877678 -0.78153688 0.83121169
0.023877637 -0.78167164 0.83097857
0.02387761 -0.78175324 0.83079839
0.023877617 -0.7816968 0.83073467
0.023877641 -0.78156954 0.83073443
0.02387766 -0.7814635 0.83071303
0.023877639 -0.78151679 0.83055407
0.023877576 -0.78174359 0.83025038
0.023877596 -0.78163046 0.83023602
0.023877591 -0.78157085 0.82994956
0.023877576 -0.7815994 0.82980818
0.023877569 -0.78159606 0.82970566
0.023877561 -0.78157163 0.82950407
0.023877449 -0.78199673 0.82903105
0.023877505 -0.7817384 0.82914025
0.023877529 -0.78160763 0.82913643
0.023877503 -0.78168923 0.82895631
0.023877488 -0.78172129 0.82881844
0.023877524 -0.78154802 0.82884997
0.023877354 -0.78187603 0.8272242
0.023877369 -0.78178769 0.82718515
0.023877347 -0.78185165 0.82702261
0.023877323 -0.78191555 0.82685304
0.023877321 -0.78189451 0.82675397
0.023877321 -0.78186285 0.82667261
0.023877321 -0.78183824 0.82657713
0.023877298 -0.7818951 0.82641459
0.023877285 -0.78192008 0.82627672
0.023877297 -0.78184593 0.82623065
0.023877369 -0.7814641 0.82621586
0.023877375 -0.78140765 0.82614505
0.023877176 -0.78215516 0.82528013
0.02387719 -0.78206682 0.82524109
0.023877172 -0.78207779 0.82500422
0.02387717 -0.78205675 0.82490516
0.023876971 -0.78283238 0.82412517
0.023877025 -0.78258121 0.82422727
0.023877133 -0.78199798 0.82415199
0.023877146 -0.78191674 0.82410592
0.023877028 -0.78223991 0.82325441
0.023877045 -0.78214097 0.82321888
0.023877075 -0.78198892 0.82323629
0.023877066 -0.78199267 0.82311964
0.02387704 -0.78207076 0.82293588
0.02387698 -0.78227985 0.82263577
0.023877004 -0.78215259 0.82262844
0.023876984 -0.7821461 0.82228905
0.023877002 -0.78203654 0.82227117
0.023876909 -0.78238374 0.8218475
0.023876917 -0.78232372 0.8217873
0.023876911 -0.78231329 0.82167768
0.02387693 -0.78220731 0.82165629
0.023876904 -0.7821939 0.82119662
0.023876827 -0.78237885 0.82056057
0.023876801 -0.78245342 0.82038039
0.023876829 -0.7822451 0.82021385
0.02387676 -0.78249317 0.81987482
0.023876768 -0.78242964 0.81981111
0.023876743 -0.78250062 0.81963444
0.023876725 -0.78254336 0.81947899
0.023876743 -0.78243732 0.8194505
0.023876695 -0.78260392 0.81918561
0.02387666 -0.78271037 0.81897366
0.023876777 -0.78215152 0.81911415
0.023876667 -0.78249913 0.81845003
0.023876689 -0.78237891 0.81843573
0.023876708 -0.78226936 0.81841785
0.023876745 -0.78209251 0.81845289
0.023876773 -0.78195107 0.81846678
0.023876777 -0.78190529 0.81838536
0.023876749 -0.78198689 0.81819814
0.023876676 -0.78224206 0.81784505
0.023876622 -0.78242642 0.81756252
0.023876576 -0.78258598 0.81729758
0.023876535 -0.78271365 0.81706446
0.02387654 -0.78266782 0.81699014
0.023876615 -0.78233516 0.81716633
0.023876639 -0.78220791 0.81715906
0.023876537 -0.78255528 0.81660813
0.023876525 -0.78256613 0.81647736
0.023876594 -0.78226179 0.81663239
0.023876593 -0.78211766 0.81616187
0.02387654 -0.78219992 0.81560695
0.023876147 -0.78306854 0.8121295
0.023876008 -0.78330433 0.81067324
0.023874575 -0.78466111 0.79257005
0.023874562 -0.78467548 0.79242158
0.023874698 -0.78401059 0.7925477
0.023874579 -0.78427404 0.79147339
0.023874596 -0.78417158 0.79144138
0.023874532 -0.78438431 0.79109526
0.02387451 -0.78443766 0.79090089
0.02387435 -0.78501874 0.79017359
0.023874359 -0.7849552 0.79010278
0.02387459 -0.78395361 0.79071271
0.023874436 -0.78441495 0.7897023
0.023874387 -0.78457457 0.78940207
0.023874367 -0.78461379 0.78922182
0.023874359 -0.78461045 0.78909099
0.023874344 -0.78463197 0.78892839
0.023874311 -0.78473133 0.78869522
0.023874309 -0.78469968 0.78858554
0.02387432 -0.78462559 0.78852534
0.023874348 -0.78448057 0.78853571
0.023874361 -0.78439939 0.78848255
0.023874355 -0.78438187 0.78836584
0.023874311 -0.78452379 0.78807616
0.023874307 -0.7845028 0.78796297
0.023874264 -0.78463054 0.78769451
0.023874238 -0.78469807 0.78748602
0.023874206 -0.7847833 0.78725988
0.023874218 -0.78471267 0.7871961
0.023874225 -0.78464919 0.78712529
0.023874233 -0.78458565 0.78704739
0.023874253 -0.78447253 0.78703308
0.023874266 -0.78438425 0.78697991
0.023874225 -0.78450489 0.78671849
0.023874186 -0.78462553 0.78645706
0.023874197 -0.78454435 0.78640389
0.023874188 -0.78454459 0.78626245
0.023874171 -0.78458023 0.78608572
0.023874141 -0.78465837 0.78586668
0.023874091 -0.78481799 0.78555936
0.023874084 -0.78481472 0.78542852
0.023874085 -0.78476888 0.78533298
0.023874074 -0.78477973 0.78518808
0.023874067 -0.78477293 0.78504664
0.023874057 -0.78476959 0.7849158
0.023874059 -0.78472733 0.78481674
0.023874059 -0.78469926 0.78471059
0.023874095 -0.78452593 0.78474921
0.023874089 -0.78450847 0.78462541
0.023874037 -0.78467518 0.78431106
0.023873977 -0.78487021 0.78396845
0.023873977 -0.78483504 0.78386939
0.023873996 -0.78473258 0.78383738
0.02387397 -0.78479302 0.78362888
0.023873921 -0.78494912 0.78332508
0.023873897 -0.78500599 0.78312719
0.023873858 -0.78511608 0.78286928
0.023873856 -0.78509146 0.78275967
0.023873877 -0.78497487 0.78273469
0.023873851 -0.78504241 0.78252625
0.023873841 -0.78504616 0.7823813
0.023873828 -0.78505701 0.7822293
0.023873787 -0.78518122 0.78195727
0.02387373 -0.7853657 0.78161818
0.023873733 -0.78531986 0.78152966
0.023873778 -0.78511113 0.78160357
0.023873782 -0.78506178 0.78151864
0.023873737 -0.78520018 0.78122544
0.023873663 -0.7854448 0.78082633
0.023873657 -0.78543794 0.78069198
0.023873659 -0.78539217 0.78059644
0.023873636 -0.78544199 0.78040558
0.023873623 -0.78545284 0.7802465
0.023873655 -0.78530079 0.78026396
0.023873694 -0.78511333 0.78032374
0.023873694 -0.78507817 0.78021759
0.023873627 -0.78530157 0.77983969
0.023873601 -0.78536552 0.77962762
0.02387362 -0.78525954 0.77959919
0.023873579 -0.78537667 0.77932715
0.023873553 -0.78544068 0.77911514
0.023873581 -0.78530627 0.77912194
0.023873461 -0.78572452 0.77852869
0.023873515 -0.78548032 0.77864498
0.023873452 -0.78568602 0.77828467
0.023873454 -0.78564376 0.77818561
0.02387351 -0.78539252 0.77830893
0.023873435 -0.78564072 0.77789927
0.023873419 -0.78567284 0.77771896
0.023873454 -0.78549951 0.77776468
0.023873461 -0.78543955 0.7776832
0.023873413 -0.78558856 0.77737939
0.023873409 -0.78556758 0.77725917
0.023873435 -0.78542966 0.77725542
0.023873458 -0.78530949 0.77724105
0.023873433 -0.78536642 0.77703607
0.02387337 -0.78557211 0.77667582
0.023873376 -0.78551215 0.7765944
0.023873383 -0.78544861 0.7765165
0.023873406 -0.78533196 0.77649862
0.023873381 -0.78538537 0.77629721
0.023873355 -0.78544939 0.7760781
0.023873357 -0.78540355 0.77598256
0.023873325 -0.78548884 0.77574939
0.023873312 -0.78550327 0.77558678
0.023873309 -0.7854858 0.77546299
0.023873208 -0.7858296 0.77494383
0.023873212 -0.78578383 0.77484834
0.023873204 -0.78577346 0.77471042
0.023873163 -0.78582025 0.77422613
0.023873167 -0.78570056 0.77391475
0.023873238 -0.78539616 0.7740981
0.023872985 -0.78606409 0.77219713
0.023873014 -0.78588396 0.77210134
0.023872998 -0.785909 0.77192819
0.023872981 -0.78594112 0.77174789
0.023872906 -0.7861858 0.77132761
0.023872871 -0.7862817 0.77107674
0.023872932 -0.78590018 0.7708993
0.023872958 -0.78576934 0.77089554
0.023872988 -0.78561729 0.77091295
0.023873026 -0.78543687 0.7709657
0.023873063 -0.78526002 0.77101487
0.023872744 -0.78635889 0.76935506
0.023872778 -0.78619617 0.76939017
0.023872815 -0.78601933 0.76943225
0.02387278 -0.78611523 0.76918143
0.023872733 -0.78625363 0.76887405
0.02387264 -0.78657269 0.76837963
0.023872705 -0.78629309 0.76853824
0.023872748 -0.78609496 0.76860863
0.023872541 -0.78650492 0.7666471
0.023872506 -0.78660083 0.76638913
0.02387256 -0.7863602 0.76650894
0.02387266 -0.78594249 0.76681936
0.023872448 -0.78656012 0.76537794
0.023872405 -0.78668791 0.76508826
0.023872394 -0.78669173 0.76492912
0.023872351 -0.78681594 0.76463592
0.023872321 -0.78689063 0.76439917
0.023872301 -0.78685594 0.76398897
0.023872297 -0.78683496 0.76385456
0.023872294 -0.78681397 0.76372725
0.023872286 -0.78680003 0.7635929
0.023872036 -0.78718299 0.76086766
0.02387212 -0.78682899 0.76111454
0.023871992 -0.78674799 0.75889409
0.023872014 -0.78662777 0.75887263
0.02387201 -0.7865997 0.75874531
0.023872085 -0.78628826 0.75894988
0.023871711 -0.78651261 0.75384843
0.02387118 -0.7878809 0.74969655
0.023871165 -0.78785664 0.74940306
0.023871167 -0.78781086 0.74929333
0.023871427 -0.78679794 0.7503311
0.023870917 -0.78818673 0.74657518
0.023870304 -0.78855813 0.73820013
0.023870161 -0.78880459 0.73672622
0.02192637 -0.79197472 0.86088079
0.021926407 -0.79170585 0.86097223
0.021926392 -0.79173434 0.86085206
0.021926586 -0.79000521 0.8609798
0.021926591 -0.78992748 0.86093724
0.021926593 -0.78985691 0.86088759
0.021926608 -0.78971547 0.86088735
0.021926641 -0.78946429 0.86096817
0.021926668 -0.78926271 0.86100674
0.021926673 -0.78917795 0.86097121
0.021926666 -0.78916395 0.86088634
0.021926682 -0.7890119 0.86089665
0.021926701 -0.78884923 0.86091053
0.021926761 -0.78823411 0.86085284
0.021926749 -0.78824139 0.86075383
0.021926792 -0.7879371 0.86086649
0.021926796 -0.78785586 0.86082739
0.0219268 -0.78778172 0.86078131
0.021926807 -0.78769338 0.8607493
0.021926833 -0.78747761 0.86080199
0.021926863 -0.78725123 0.86085814
0.021926859 -0.78721601 0.86078739
0.021926856 -0.78719139 0.86071306
0.021926906 -0.7867353 0.86073703
0.021926906 -0.78667879 0.86068034
0.021926928 -0.78649843 0.86071181
0.021926947 -0.78633225 0.86072922
0.021926992 -0.78602445 0.86084533
0.021927005 -0.7858901 0.860838
0.021927008 -0.78581595 0.86079901
0.021927003 -0.78579134 0.86071765
0.021927012 -0.78568882 0.86069274
0.021927038 -0.78547662 0.86074179
0.021927068 -0.78525376 0.86080152
0.021927083 -0.7851159 0.8608048
0.021927072 -0.78512669 0.86070228
0.02192707 -0.78508085 0.86063504
0.021927113 -0.78477657 0.86074764
0.021927154 -0.78448296 0.86085671
0.021927163 -0.78437334 0.86083883
0.021927146 -0.78441954 0.86071515
0.021927131 -0.78445864 0.86059147
0.021927157 -0.78424644 0.86064065
0.02192721 -0.78389615 0.86079204
0.021927228 -0.78372991 0.86080939
0.021927219 -0.78372306 0.86071748
0.021927217 -0.78368425 0.86065018
0.021927249 -0.78345436 0.860717
0.021927262 -0.78332001 0.8607167
0.02192729 -0.78310072 0.86077291
0.021927306 -0.78294861 0.86078322
0.021927319 -0.78282493 0.86077243
0.021927318 -0.78277904 0.86071223
0.02192731 -0.7827757 0.86061674
0.021927334 -0.78258473 0.86065882
0.021927342 -0.78247869 0.86063743
0.021927368 -0.78228062 0.86067951
0.021927368 -0.78222412 0.86062282
0.021927375 -0.78212875 0.86059088
0.021927429 -0.78176075 0.86075991
0.021927463 -0.78151667 0.8608337
0.021927474 -0.78139645 0.86082643
0.021927474 -0.78134352 0.86076623
0.021927472 -0.78129768 0.86069894
0.021927472 -0.78125185 0.8606388
0.021927483 -0.78112459 0.86063147
0.021927524 -0.78084153 0.86073703
0.021927543 -0.78067529 0.86076146
0.021927547 -0.78060472 0.86071187
0.021927567 -0.78043139 0.86074334
0.021927586 -0.78027225 0.86076075
0.021927591 -0.78018391 0.8607288
0.021927571 -0.78025138 0.86058396
0.021927575 -0.78017366 0.86054134
0.021927623 -0.77985168 0.86068577
0.021927625 -0.77978456 0.86063969
0.021927627 -0.77972102 0.86059004
0.021927634 -0.77962917 0.86055452
0.021927653 -0.77947003 0.86057901
0.021927666 -0.77933919 0.86058229
0.021927692 -0.7791447 0.86062789
0.021927694 -0.77907759 0.86058182
0.021927701 -0.77897865 0.86055338
0.021927707 -0.77889031 0.86052138
0.021927703 -0.77886569 0.86044711
0.021927692 -0.77887297 0.86034107
0.021927703 -0.77876335 0.86033022
0.021927744 -0.77846968 0.86044639
0.021927772 -0.77826101 0.86050612
0.021927781 -0.77815849 0.86048824
0.021927791 -0.77804542 0.86047393
0.021927793 -0.77798188 0.86042428
0.021927804 -0.77787226 0.86040646
0.021927821 -0.77772021 0.8604238
0.021927817 -0.77769208 0.86034602
0.021927834 -0.77754003 0.86036342
0.02192786 -0.7773419 0.86041963
0.021927904 -0.77703762 0.86054635
0.021927921 -0.77689266 0.86055666
0.021927923 -0.77682203 0.86051416
0.021927932 -0.77671957 0.86049628
0.021927942 -0.77661347 0.86047488
0.021927962 -0.77645081 0.8605029
0.02192796 -0.77640849 0.86043912
0.021927971 -0.77629185 0.86042833
0.021927988 -0.7761398 0.86044574
0.021928001 -0.77601254 0.8604455
0.021928022 -0.7758463 0.86046994
0.021928037 -0.77570838 0.86048031
0.021928053 -0.77556342 0.86049068
0.021928063 -0.77545738 0.86047632
0.021928061 -0.77541864 0.86040908
0.021928063 -0.77535152 0.86035591
0.021928102 -0.77507555 0.86046857
0.021928122 -0.77491289 0.86049658
0.021928132 -0.77480686 0.86048222
0.021928145 -0.77468663 0.86047494
0.021928163 -0.77452046 0.86049938
0.021928171 -0.77443564 0.86047095
0.021928169 -0.77438271 0.86041075
0.021928174 -0.77430499 0.86037529
0.021928178 -0.77422726 0.86033976
0.021928176 -0.77419204 0.86026901
0.021928167 -0.7741887 0.86017352
0.021928169 -0.7741251 0.86012393
0.021928176 -0.77402616 0.86010253
0.021928189 -0.77390242 0.86009878
0.021928202 -0.77377516 0.86009854
0.021928195 -0.77376467 0.86001015
0.021928169 -0.77386397 0.85984057
0.021928156 -0.77388543 0.8597275
0.021928174 -0.77372628 0.859752
0.021928204 -0.77350342 0.85981876
0.021928221 -0.77336198 0.85983264
0.021928228 -0.77326298 0.85981125
0.021928228 -0.77321714 0.85975105
0.021928217 -0.77322441 0.85964501
0.021928214 -0.7731927 0.85957068
0.021928208 -0.77317518 0.85948932
0.021928206 -0.77313286 0.8594256
0.02192823 -0.7729454 0.85947126
0.02192824 -0.77283937 0.85945696
0.021928234 -0.77281481 0.85937554
0.021928227 -0.7728008 0.85929072
0.021928225 -0.77275848 0.85922694
0.021928228 -0.77269137 0.85918087
0.021928236 -0.772596 0.85915595
0.021928238 -0.77252889 0.85910988
0.02192824 -0.77246886 0.85905671
0.021928245 -0.77238405 0.85902834
0.021928241 -0.7723524 0.85895401
0.021928234 -0.77233487 0.85886556
0.02192824 -0.77225357 0.85883361
0.021928245 -0.77216882 0.85879809
0.021928253 -0.772084 0.85876966
0.021928256 -0.77200276 0.85873771
0.021928251 -0.77198166 0.85865283
0.02192824 -0.77198893 0.85854673
0.021928243 -0.7719183 0.85850418
0.021928256 -0.77179807 0.858504
0.021928255 -0.77175581 0.85844028
0.021928243 -0.7717666 0.85833067
0.021928236 -0.77174908 0.85824937
0.02192824 -0.77167493 0.85820323
0.021928245 -0.77159363 0.85817128
0.021928236 -0.7716009 0.85807228
0.021928221 -0.77162939 0.85795218
0.021928219 -0.77158004 0.8578884
0.021928225 -0.77149874 0.85785645
0.02192823 -0.77141041 0.8578245
0.02192823 -0.77136105 0.85776782
0.021928214 -0.77140015 0.85763711
0.02192821 -0.77137202 0.85755926
0.021928208 -0.7713297 0.85749555
0.021928195 -0.77134758 0.85738593
0.02192818 -0.77138317 0.85725874
0.02192816 -0.77143997 0.85711741
0.021928146 -0.77146494 0.85700077
0.021928141 -0.77143681 0.85692298
0.021928128 -0.77146173 0.85680634
0.021928117 -0.771469 0.8567003
0.021928113 -0.77143377 0.85662949
0.021928107 -0.77141625 0.85654813
0.021928096 -0.77142352 0.85644209
0.021928091 -0.77140242 0.85635722
0.021928083 -0.77138489 0.85627586
0.021928068 -0.77142048 0.85614866
0.021928059 -0.77142066 0.85604966
0.021928048 -0.77142084 0.85595065
0.021928033 -0.77145642 0.85582346
0.021928016 -0.7714991 0.85569626
0.021927988 -0.77160197 0.85551608
0.021927962 -0.77168709 0.85534656
0.021927927 -0.77182889 0.85513467
0.021927852 -0.7721867 0.85475701
0.021927133 -0.7758804 0.85131651
0.021926954 -0.77681881 0.85050148
0.021926878 -0.77720135 0.85011327
0.021926835 -0.77737856 0.84987319
0.02192677 -0.77769029 0.84953433
0.021926723 -0.77789581 0.84927303
0.021926686 -0.77804822 0.84905767
0.021926649 -0.7782042 0.84883165
0.021926606 -0.77838492 0.84859508
0.021926619 -0.77825767 0.84858781
0.021926288 -0.77933651 0.84632701
0.021926314 -0.77902198 0.8462593
0.021926301 -0.77903634 0.84614617
0.021926284 -0.77907902 0.84601188
0.021926263 -0.77913231 0.84586704
0.021926239 -0.77921039 0.84570456
0.021926213 -0.77930617 0.84552437
0.021926213 -0.77924621 0.84546417
0.02192563 -0.78061199 0.84091991
0.021925632 -0.78054136 0.84087032
0.021925639 -0.78045303 0.84083831
0.021925617 -0.78051341 0.84067935
0.021925543 -0.78064185 0.84004319
0.021925543 -0.78058535 0.8399865
0.021925481 -0.78086531 0.83965111
0.021925459 -0.78092921 0.83949566
0.021925446 -0.78094357 0.8393755
0.021925414 -0.78105706 0.83917767
0.021925449 -0.78080589 0.83927268
0.021925438 -0.78080958 0.83916312
0.021925442 -0.78073895 0.83911347
0.021925451 -0.78063297 0.83909208
0.021925427 -0.78070396 0.83892959
0.021925403 -0.78078204 0.83876002
0.02192539 -0.78079993 0.83863628
0.021925371 -0.78083909 0.83849847
0.021925358 -0.78085345 0.83837831
0.021925306 -0.78107667 0.83808523
0.021925298 -0.78106624 0.83798975
0.021925291 -0.7810452 0.83789784
0.021925289 -0.78100646 0.83782351
0.021925289 -0.78095001 0.83775973
0.021925306 -0.78079438 0.83778071
0.021925291 -0.78081942 0.83764994
0.02192525 -0.78098953 0.83740276
0.02192522 -0.7810995 0.83720851
0.021925202 -0.78113508 0.83706713
0.021925209 -0.78103614 0.83703864
0.021925244 -0.780792 0.83713371
0.021925218 -0.78087366 0.83696061
0.021925187 -0.78098714 0.83675569
0.021925163 -0.78106171 0.8365826
0.021925153 -0.78105485 0.8364836
0.021925138 -0.78107983 0.83635283
0.021925109 -0.78118271 0.83615857
0.021925103 -0.78116167 0.8360666
0.021925094 -0.78114766 0.8359676
0.021925099 -0.7810629 0.83593208
0.021925097 -0.78101349 0.83586127
0.021925082 -0.78104204 0.83572698
0.021925054 -0.78113073 0.83554685
0.021925008 -0.78133279 0.8352679
0.021924984 -0.78140378 0.83509833
0.021925008 -0.78121281 0.83514744
0.021925028 -0.78105009 0.83517545
0.021924997 -0.78116006 0.83497411
0.021924963 -0.78128421 0.8347587
0.021924946 -0.7813127 0.83462441
0.021924946 -0.78125274 0.83456415
0.021924945 -0.781214 0.83448988
0.021924954 -0.78110087 0.83447552
0.021924963 -0.78099483 0.83444703
0.021924868 -0.78145182 0.83395642
0.021924883 -0.78131038 0.83396322
0.021924876 -0.78129643 0.83386421
0.021924866 -0.78129303 0.83376169
0.021924863 -0.78125077 0.83368379
0.021924876 -0.78112704 0.83368003
0.0219249 -0.78093958 0.83372569
0.021924701 -0.78194183 0.83276933
0.021924684 -0.78198099 0.83263153
0.021924729 -0.78168023 0.83276886
0.021924755 -0.78148216 0.83282506
0.021924758 -0.78140444 0.83278251
0.02192474 -0.78144711 0.83263409
0.021924719 -0.78150398 0.83247155
0.021924712 -0.78148293 0.83237964
0.021924727 -0.78134149 0.83238643
0.021924721 -0.78132045 0.83229446
0.021924715 -0.7812888 0.8322131
0.02192471 -0.78125709 0.83212465
0.021924641 -0.78157246 0.83174694
0.021924643 -0.78150183 0.83169729
0.021924643 -0.78145248 0.83162647
0.021924609 -0.78144956 0.8312906
0.021924581 -0.78154534 0.83110338
0.02192455 -0.78165883 0.83089149
0.021924546 -0.78161657 0.83082068
0.021924486 -0.78187525 0.83048528
0.021924473 -0.78189313 0.83035451
0.021924611 -0.78110021 0.83091873
0.021924609 -0.78104728 0.8308515
0.021924427 -0.78185165 0.82983118
0.021924431 -0.7817775 0.82978505
0.021924404 -0.78185207 0.82961196
0.021924406 -0.78178853 0.82955527
0.021924434 -0.78157985 0.829615
0.021924445 -0.78146315 0.82960421
0.021924458 -0.78133589 0.82959688
0.021924453 -0.78130424 0.82951552
0.021924399 -0.78153813 0.8292048
0.021924373 -0.78161621 0.82902819
0.021924328 -0.78180057 0.82875979
0.021924313 -0.78182554 0.82862902
0.021924296 -0.78185409 0.82849473
0.021924291 -0.78170949 0.82827878
0.021924296 -0.78161764 0.82824326
0.021924321 -0.7814337 0.8282854
0.021924328 -0.78133124 0.82826042
0.021924255 -0.78166783 0.82786155
0.021924237 -0.78170699 0.82771665
0.021924132 -0.78208649 0.82705617
0.02192411 -0.78215039 0.82689369
0.021924088 -0.78221792 0.82672054
0.021924082 -0.78212267 0.8265754
0.021924093 -0.78200603 0.82655752
0.021924088 -0.78197789 0.82647264
0.021923954 -0.78257322 0.82573122
0.021923976 -0.78240347 0.82576627
0.021924082 -0.78176981 0.82619292
0.021924086 -0.78169215 0.82614332
0.021923937 -0.78242534 0.82539862
0.021923961 -0.78224492 0.82544428
0.021923963 -0.78217435 0.82538754
0.021923935 -0.78225952 0.8252039
0.021923948 -0.78213578 0.82519305
0.021923993 -0.78183854 0.82533395
0.021923937 -0.78165609 0.82456994
0.021923851 -0.78187996 0.82391626
0.02192384 -0.7818802 0.82380313
0.021923803 -0.78201848 0.8235665
0.02192376 -0.78218514 0.82330871
0.021923751 -0.78217119 0.82320261
0.021923749 -0.78212887 0.82312471
0.021923758 -0.78201932 0.82310688
0.021923749 -0.78200889 0.82299721
0.021923738 -0.78200912 0.82288408
0.021923715 -0.78206599 0.82271451
0.021923624 -0.78248405 0.82223439
0.021923626 -0.78242403 0.82217419
0.021923682 -0.78206658 0.82236803
0.021923674 -0.78204554 0.82226896
0.021923687 -0.78191477 0.82226521
0.02192346 -0.78275526 0.82082778
0.021923454 -0.78272718 0.82073581
0.021923581 -0.78200144 0.82126129
0.02192357 -0.7819981 0.82114458
0.021923443 -0.78254032 0.82042783
0.021923462 -0.78238827 0.82044524
0.021923404 -0.78262925 0.82012045
0.021923376 -0.78271449 0.81992257
0.021923371 -0.78268635 0.8198306
0.021923389 -0.78253073 0.81985158
0.0219234 -0.78241414 0.81983364
0.021923376 -0.78247803 0.81966406
0.021923324 -0.78268719 0.81935686
0.021923339 -0.78254932 0.81936014
0.021923356 -0.78240079 0.81937402
0.021923296 -0.78253597 0.81890053
0.021923371 -0.78208292 0.81918252
0.021923292 -0.78244078 0.8187483
0.021923244 -0.78263581 0.81845522
0.021923298 -0.78228545 0.81864905
0.021923296 -0.78223962 0.81856763
0.021923272 -0.78230357 0.81839097
0.02192319 -0.78267562 0.81794262
0.021923164 -0.78274667 0.81775892
0.021923158 -0.78271854 0.81766695
0.02192316 -0.78265148 0.81760669
0.021923166 -0.78255606 0.81757474
0.021923183 -0.78240752 0.81758857
0.021923212 -0.78219175 0.81766242
0.021923134 -0.78254253 0.8172282
0.021923102 -0.78264898 0.81700921
0.021923101 -0.78259611 0.81694192
0.021923104 -0.78251487 0.81689584
0.02192305 -0.78273463 0.81657803
0.021923037 -0.7827419 0.81645072
0.021923026 -0.78273863 0.81632698
0.021923007 -0.78277779 0.81617504
0.021922953 -0.78293401 0.81579345
0.021922974 -0.78277135 0.81582147
0.021922994 -0.78260511 0.81584591
0.021923 -0.78250974 0.8158139
0.021922953 -0.7826941 0.81552434
0.02192295 -0.78265536 0.81544298
0.021922914 -0.78277951 0.81520629
0.021922871 -0.78293556 0.81494492
0.021922851 -0.78298181 0.81477886
0.021922853 -0.78291476 0.8147186
0.021922845 -0.78288662 0.81462669
0.021922842 -0.78285146 0.81453466
0.021922683 -0.78293198 0.81300038
0.021922614 -0.78304267 0.81240308
0.0219208 -0.78413486 0.79484051
0.021920785 -0.7841422 0.79469907
0.021920703 -0.78448248 0.79422593
0.021920701 -0.7840485 0.79372662
0.021920698 -0.78399915 0.79364169
0.021920653 -0.78416228 0.79334503
0.021920605 -0.78407854 0.7927509
0.021920623 -0.78391939 0.79278243
0.021920593 -0.78400463 0.79256338
0.021920588 -0.78396946 0.79246432
0.021920441 -0.78462493 0.79166293
0.021920444 -0.78454018 0.79161328
0.021920517 -0.78412598 0.79189891
0.021920498 -0.784024 0.7915982
0.02192032 -0.78483891 0.79063094
0.021920323 -0.78475064 0.7905848
0.021920281 -0.78476554 0.7901606
0.021920284 -0.7846843 0.79010737
0.021920303 -0.78452516 0.79013187
0.021920314 -0.78440499 0.7901175
0.021920335 -0.78424937 0.79014552
0.021920348 -0.78411859 0.7901417
0.021920383 -0.78387088 0.79025441
0.021920389 -0.78377903 0.79021186
0.021920253 -0.78438497 0.78945982
0.021920279 -0.78419042 0.78951961
0.021920174 -0.78464401 0.78891939
0.021920146 -0.78470802 0.78871441
0.021920193 -0.78441781 0.78887653
0.021920074 -0.78493875 0.78820217
0.021920081 -0.78483981 0.78817374
0.021920057 -0.78488964 0.78798288
0.021920048 -0.78486514 0.78786618
0.021920048 -0.78480512 0.78779185
0.021920083 -0.78457159 0.78789747
0.021919994 -0.78494024 0.78737485
0.021920003 -0.78482717 0.78735346
0.02192007 -0.7844342 0.78762501
0.021920102 -0.78421485 0.78770947
0.021920009 -0.7846083 0.78716922
0.021920025 -0.78445268 0.78719014
0.021919997 -0.7845273 0.78697461
0.021919863 -0.78511554 0.78622615
0.021919876 -0.78498828 0.78621882
0.021919873 -0.78493893 0.78613389
0.021919915 -0.78467 0.78627485
0.021919899 -0.78468084 0.78612286
0.021919858 -0.78481221 0.78584373
0.021919871 -0.78468847 0.78583294
0.021919863 -0.78465682 0.78573036
0.021919848 -0.78466773 0.78557831
0.021919835 -0.78466797 0.78544396
0.021919794 -0.78479928 0.78516489
0.021919802 -0.78469324 0.78513646
0.021919779 -0.78474307 0.78494561
0.021919744 -0.78484255 0.78469831
0.021919716 -0.78491008 0.78448981
0.021919677 -0.78504139 0.78421074
0.021919698 -0.78487515 0.78424937
0.021919705 -0.78477269 0.78421736
0.021919664 -0.78490049 0.78394181
0.021919623 -0.78503883 0.78365564
0.021919597 -0.78509575 0.78345776
0.021919562 -0.78520584 0.78319991
0.021919532 -0.78528404 0.7829808
0.021919521 -0.78527009 0.78285348
0.021919519 -0.78521371 0.78276855
0.021919517 -0.78515017 0.78269064
0.02191953 -0.78502643 0.78268689
0.021919521 -0.78500903 0.78256315
0.021919494 -0.78506237 0.78236169
0.02191945 -0.78521848 0.78205794
0.02191939 -0.78543836 0.78168356
0.021919381 -0.78541738 0.78156328
0.021919392 -0.78529721 0.78154898
0.02191939 -0.78523725 0.78147459
0.021919375 -0.78524458 0.78132612
0.021919388 -0.78511375 0.78131527
0.021919385 -0.78506446 0.78123033
0.021919345 -0.78519219 0.78095478
0.021919329 -0.78520662 0.78079218
0.021919293 -0.7853061 0.78054488
0.021919219 -0.78560036 0.78008932
0.021919193 -0.78566432 0.7798844
0.02191921 -0.78550875 0.77990532
0.021919215 -0.7854169 0.77985567
0.021919219 -0.78533572 0.77980244
0.021919219 -0.78526509 0.77973163
0.021919213 -0.78522289 0.77963257
0.021919223 -0.78511328 0.77960759
0.021919191 -0.78520566 0.77936733
0.021919148 -0.78534055 0.77908474
0.021919124 -0.78539389 0.77888334
0.021919116 -0.78535873 0.77877718
0.021919163 -0.78506857 0.77893931
0.021918949 -0.7860288 0.77777076
0.021918952 -0.78595108 0.77771407
0.021918947 -0.78590178 0.77761495
0.02191891 -0.78601891 0.77735001
0.021918993 -0.78554803 0.77770627
0.021919128 -0.78483981 0.77832723
0.021919109 -0.78485781 0.77816111
0.02191896 -0.78550988 0.77731377
0.021918969 -0.78539324 0.77729589
0.021919005 -0.78515971 0.77740151
0.021918947 -0.78537601 0.77703065
0.021918923 -0.78542233 0.77683628
0.021918908 -0.78542614 0.77668428
0.021918802 -0.78586566 0.77606285
0.021918891 -0.78530294 0.77638352
0.021918677 -0.78625965 0.77520436
0.021918694 -0.7861076 0.77522177
0.021918729 -0.78587055 0.77533096
0.021918904 -0.78496748 0.77616018
0.021918632 -0.78620404 0.77468103
0.02191861 -0.78623974 0.77449721
0.021918615 -0.78614789 0.77445465
0.021918638 -0.78597456 0.77449322
0.02191871 -0.78556037 0.77479303
0.021918673 -0.78567398 0.77452451
0.021918336 -0.78633302 0.77175736
0.021918332 -0.78628016 0.77166891
0.021918332 -0.7862131 0.77159452
0.021918373 -0.78567952 0.77144152
0.02191831 -0.78591359 0.7710318
0.021918185 -0.78643459 0.77031505
0.021918174 -0.7864207 0.7701807
0.021918269 -0.78590024 0.77060044
0.021918312 -0.7856313 0.7707485
0.021918289 -0.78566343 0.77056116
0.021918135 -0.78612858 0.76946241
0.021918194 -0.78578168 0.76969516
0.02191803 -0.78648335 0.7687701
0.021918064 -0.78625339 0.7688722
0.021918047 -0.78626782 0.7687096
0.021918027 -0.78629994 0.76852936
0.021918111 -0.78583258 0.76888913
0.021918125 -0.78568763 0.7688995
0.021918124 -0.78563476 0.76881099
0.02191807 -0.78581923 0.76845777
0.021917677 -0.78705096 0.76573408
0.021917697 -0.78668714 0.76553899
0.021917768 -0.78628004 0.7658388
0.021917794 -0.78574318 0.76553375
0.021917382 -0.78615659 0.76171261
0.021917358 -0.78620297 0.76151115
0.021917125 -0.78722 0.76020837
0.021917121 -0.78716713 0.76011282
0.021916892 -0.78697377 0.75753856
0.021916434 -0.78697872 0.75282574
0.021916246 -0.78735274 0.75127429
0.021916166 -0.78764355 0.75077277
0.021916144 -0.78767216 0.75057483
0.021915888 -0.78777218 0.74804002
0.021914858 -0.78875107 0.73846048
0.021914864 -0.7886557 0.73840725
0.019842444 -0.79169226 0.86101395
0.019842476 -0.79154021 0.86101723
0.019842515 -0.79135984 0.8610487
0.019842574 -0.79109454 0.86112958
0.019842489 -0.79142392 0.86080843
0.019842563 -0.7910949 0.86093867
0.019842602 -0.79090744 0.86097014
0.019842681 -0.79056424 0.86110747
0.019842736 -0.7902956 0.8610999
0.019842515 -0.79117715 0.86039788
0.019842731 -0.79027468 0.86092311
0.019842744 -0.79019696 0.86088055
0.019842768 -0.79007673 0.86086619
0.01984271 -0.79028934 0.86062616
0.019842828 -0.7897833 0.86087632
0.019842763 -0.79003125 0.86060804
0.019842811 -0.78980839 0.86066777
0.019842908 -0.78939444 0.86085445
0.019842951 -0.78919637 0.86089653
0.019842952 -0.78916115 0.86082572
0.019842969 -0.78907281 0.86078668
0.01984293 -0.78921455 0.860596
0.019842872 -0.78942358 0.8603524
0.019843169 -0.78810406 0.86078501
0.019843178 -0.788037 0.8607319
0.019843208 -0.78789908 0.86073518
0.019843288 -0.78754532 0.86088306
0.019843318 -0.78740031 0.86088634
0.019843474 -0.78667182 0.86100531
0.019843392 -0.78698701 0.86069119
0.019843478 -0.78659445 0.86077183
0.019843504 -0.78646362 0.86076099
0.019843712 -0.78554022 0.86111647
0.01984363 -0.78580976 0.86064321
0.019843649 -0.78571081 0.86061472
0.019843718 -0.78540659 0.86072731
0.019843733 -0.78532177 0.86069185
0.019843731 -0.78530777 0.86060697
0.019843739 -0.78525835 0.86054325
0.019843742 -0.78522313 0.8604725
0.019843772 -0.78507817 0.86047578
0.019843832 -0.78480935 0.86056721
0.019843856 -0.78469265 0.86055642
0.019843845 -0.78471053 0.86044681
0.01984386 -0.78462577 0.86041135
0.019843899 -0.78444892 0.8604393
0.019843988 -0.78405619 0.86061192
0.019844003 -0.78397846 0.86057639
0.019843996 -0.78398216 0.86047387
0.019844016 -0.78388321 0.86045247
0.019844063 -0.78366745 0.86050516
0.019844089 -0.78353667 0.86050141
0.019844083 -0.78353679 0.86040241
0.0198441 -0.78344846 0.86037046
0.019844146 -0.78323978 0.86042309
0.019844171 -0.78311604 0.8604123
0.019844176 -0.78307021 0.86034501
0.019844204 -0.78293234 0.86034834
0.019844253 -0.78271306 0.86040449
0.01984431 -0.78245479 0.86049247
0.019844394 -0.78209037 0.86065096
0.01984445 -0.78184277 0.86072826
0.019844471 -0.78174025 0.86071044
0.019844489 -0.78163773 0.86068553
0.019844495 -0.78159541 0.86062181
0.019844495 -0.78157437 0.86053687
0.019844547 -0.78133732 0.86061072
0.01984464 -0.78088832 0.86064178
0.019844607 -0.78100175 0.86046523
0.01984464 -0.78084612 0.86047906
0.019844681 -0.78065866 0.86051762
0.019844657 -0.78072965 0.86036927
0.019844646 -0.78075814 0.8602562
0.019844845 -0.77985615 0.86051983
0.019844892 -0.77962279 0.86049819
0.019844934 -0.77943182 0.86054027
0.019844964 -0.77928686 0.86055064
0.019844981 -0.77919495 0.86052221
0.019845005 -0.77907479 0.86051494
0.019845026 -0.77896875 0.86050057
0.019845018 -0.77897596 0.86039454
0.019845074 -0.77870727 0.86040115
0.019845108 -0.77855521 0.86041856
0.01984513 -0.77843857 0.86040777
0.019845169 -0.77826172 0.86044282
0.019845199 -0.77811676 0.86045319
0.019845216 -0.77802485 0.8604247
0.019845227 -0.77796131 0.86037511
0.019845266 -0.77777386 0.86041367
0.019845312 -0.77756518 0.86047345
0.019845339 -0.77743793 0.86047322
0.019845359 -0.77733892 0.86045182
0.019845383 -0.77721876 0.86044455
0.019845387 -0.77717996 0.86037731
0.019845398 -0.7771129 0.86033124
0.019845439 -0.77692544 0.8603698
0.019845461 -0.77681231 0.86036253
0.019845512 -0.77658588 0.86043286
0.019845562 -0.7763595 0.8605032
0.019845573 -0.77628887 0.86046064
0.019845579 -0.77624655 0.86039692
0.019845597 -0.7761476 0.86037552
0.019845622 -0.77603096 0.86036474
0.019845616 -0.77603108 0.86026573
0.019845638 -0.77591801 0.86025846
0.019845715 -0.77558893 0.86040992
0.01984575 -0.77540165 0.86035657
0.019845786 -0.77523893 0.86037749
0.019845812 -0.77510816 0.86038083
0.019845838 -0.77498084 0.86038059
0.019845881 -0.77478629 0.86043328
0.01984592 -0.77460593 0.86047184
0.019845961 -0.77442199 0.86051399
0.01984599 -0.77427703 0.86052436
0.019846018 -0.77414268 0.86053115
0.019846028 -0.77408618 0.86047453
0.019846013 -0.77412176 0.86035436
0.019846005 -0.77412546 0.86025184
0.019846015 -0.77407253 0.86019874
0.019846022 -0.77401602 0.86014205
0.019846033 -0.77394897 0.86009598
0.019846046 -0.77387476 0.86005694
0.019846043 -0.77386785 0.85996503
0.01984603 -0.77389991 0.85984135
0.019846044 -0.7738151 0.85981292
0.019846072 -0.77368426 0.85981619
0.019846084 -0.77361715 0.85977012
0.019846095 -0.773543 0.85972404
0.019846108 -0.77346885 0.859685
0.019846117 -0.77340883 0.8596319
0.019846134 -0.7733205 0.85960698
0.019846156 -0.77321094 0.8595891
0.019846169 -0.77313316 0.85955364
0.019846179 -0.77307671 0.85949695
0.019846186 -0.7730273 0.85944033
0.019846203 -0.77293187 0.85941541
0.01984622 -0.77284712 0.85938698
0.01984622 -0.7728225 0.85930562
0.019846227 -0.77276957 0.85924542
0.019846248 -0.77266705 0.85922754
0.019846255 -0.77261412 0.85917443
0.019846248 -0.77261782 0.85907191
0.019846248 -0.77260029 0.85899055
0.019846249 -0.7725721 0.85891277
0.019846249 -0.77255106 0.85883492
0.019846274 -0.77242732 0.85883117
0.019846316 -0.77223629 0.85888034
0.019846346 -0.77209133 0.85889071
0.019846354 -0.7720384 0.85883754
0.019846352 -0.77202439 0.85875267
0.01984635 -0.77201039 0.85866076
0.019846359 -0.77195042 0.85861468
0.019846372 -0.7718727 0.85857213
0.019846378 -0.77183038 0.85850841
0.019846372 -0.77182698 0.85841292
0.019846367 -0.77183068 0.85831749
0.01984637 -0.77179545 0.85824674
0.019846382 -0.7717284 0.85820061
0.019846395 -0.77165419 0.85815454
0.019846411 -0.77156234 0.8581332
0.019846417 -0.77152002 0.85806948
0.019846415 -0.77150249 0.85798103
0.019846436 -0.77139997 0.8579632
0.019846445 -0.77133995 0.85791004
0.019846441 -0.77133304 0.85781813
0.019846437 -0.77132261 0.85772973
0.019846424 -0.77135819 0.85760957
0.019846404 -0.771415 0.85746115
0.0198464 -0.77140808 0.85736924
0.019846391 -0.77141887 0.85726672
0.019846376 -0.77145797 0.85713595
0.01984637 -0.77145815 0.85703701
0.019846367 -0.77145475 0.85694152
0.019846356 -0.77147615 0.85682839
0.019846339 -0.77151883 0.85669416
0.019846337 -0.7715013 0.8566128
0.019846356 -0.77140588 0.85658789
0.019846356 -0.77138126 0.85650653
0.019846343 -0.77141327 0.85638285
0.01984635 -0.77136034 0.85632974
0.019846357 -0.77131099 0.85626596
0.019846337 -0.7713713 0.85612112
0.019846322 -0.77140337 0.85599744
0.019846302 -0.77146369 0.8558526
0.019846287 -0.77150279 0.85572183
0.019846279 -0.77151006 0.85562283
0.019846255 -0.77158457 0.85546386
0.019846249 -0.77158475 0.85536492
0.019846227 -0.77164865 0.8552165
0.019846138 -0.77198517 0.85485291
0.019844821 -0.77709156 0.85013115
0.019844739 -0.77740324 0.8497923
0.019844661 -0.77769369 0.84946752
0.019844603 -0.77789921 0.84920627
0.019844553 -0.77807993 0.84896964
0.019844502 -0.77825713 0.84872955
0.019844469 -0.77836704 0.84854239
0.019844456 -0.77839911 0.84841865
0.019844174 -0.77922273 0.84644729
0.019844271 -0.778763 0.84650308
0.019844247 -0.77883756 0.84633702
0.01984423 -0.77888376 0.84619921
0.019844212 -0.77892995 0.84606141
0.01984423 -0.77881348 0.84594452
0.019844161 -0.7790615 0.84564793
0.019844137 -0.779136 0.84548897
0.019844102 -0.77925658 0.8452912
0.019844009 -0.77960014 0.84491348
0.019844025 -0.77951533 0.84487796
0.019844046 -0.77940577 0.84486014
0.019843537 -0.78071761 0.8406657
0.019843599 -0.78045225 0.84076774
0.019843606 -0.78039581 0.84071112
0.01984359 -0.78043848 0.84056973
0.019843504 -0.78075731 0.84020263
0.0198435 -0.78075039 0.84010363
0.0198435 -0.78072226 0.84001869
0.019843478 -0.78078616 0.83986324
0.019843509 -0.7806412 0.83987361
0.019843511 -0.78060597 0.83979577
0.019843491 -0.78066635 0.83963674
0.019843491 -0.78063822 0.83955187
0.019843498 -0.78058881 0.83948815
0.019843491 -0.78058898 0.83938205
0.019843448 -0.78074145 0.83915251
0.019843424 -0.78081244 0.83899003
0.019843392 -0.78091526 0.83879572
0.01984337 -0.78097212 0.83864027
0.019843422 -0.78074217 0.83872122
0.019843433 -0.78067511 0.83866805
0.019843409 -0.78074962 0.83850199
0.019843379 -0.78084189 0.83831829
0.019843357 -0.7809093 0.83815932
0.019843331 -0.78098387 0.83798623
0.019843355 -0.78086364 0.83797896
0.019843362 -0.78081429 0.83791524
0.019843346 -0.78084987 0.83777386
0.019843316 -0.78094566 0.83758664
0.019843297 -0.78099895 0.83743471
0.019843306 -0.78093892 0.83738154
0.019843288 -0.7809816 0.83723313
0.01984326 -0.78107029 0.837053
0.01984323 -0.78116256 0.8368693
0.019843224 -0.78116626 0.83675969
0.019843245 -0.78106028 0.83673829
0.019843262 -0.78096485 0.83670634
0.019843262 -0.78094381 0.83661437
0.019843245 -0.78098649 0.83647299
0.0198432 -0.7811389 0.83623642
0.019843191 -0.78114617 0.83612329
0.019843213 -0.78103662 0.83610541
0.01984326 -0.78082788 0.83616513
0.019843224 -0.78094137 0.83596027
0.019843217 -0.78094864 0.83584714
0.019843183 -0.78105503 0.83564937
0.019843187 -0.78101277 0.83557856
0.019843167 -0.78106958 0.83541602
0.019843128 -0.78120434 0.83519703
0.019843109 -0.78124702 0.83504862
0.019843107 -0.78123659 0.83495319
0.019843085 -0.78129697 0.83479416
0.019843066 -0.78134674 0.83463866
0.019843068 -0.78131503 0.83455729
0.019843055 -0.78134 0.83442652
0.019843042 -0.78136498 0.83429575
0.019843044 -0.78133684 0.83420378
0.019843068 -0.7812131 0.83420002
0.019843072 -0.78117436 0.83411866
0.019843018 -0.78136218 0.83385384
0.019842939 -0.78164917 0.83350432
0.019842964 -0.78152549 0.83349347
0.019842962 -0.78150797 0.83339798
0.019842954 -0.78151524 0.83328485
0.019842971 -0.78142333 0.83324933
0.019842973 -0.7813881 0.83317149
0.019842969 -0.78138125 0.83306545
0.019842941 -0.78146642 0.83288175
0.019842934 -0.7814737 0.83276153
0.019842908 -0.78155178 0.83258486
0.019842891 -0.78159446 0.83244354
0.019842884 -0.78159463 0.83233041
0.019842906 -0.78147799 0.83231252
0.019842908 -0.78144634 0.83223116
0.019842906 -0.78142881 0.83213568
0.019842917 -0.78136528 0.83207899
