# .PCD v0.7 - Point Cloud Data file format
VERSION 0.7
FIELDS x y z rgb
SIZE 4 4 4 4
TYPE F F F U
COUNT 1 1 1 1
WIDTH 1095
HEIGHT 1
VIEWPOINT 0 0 0 1 0 0 0
POINTS 1095
DATA ascii
-0.16580138 -1.4075488 1.112204 4280566900
-0.16580141 -1.4075704 1.1120626 4280566900
-0.16580147 -1.4075387 1.1119812 4280566900
-0.16580154 -1.4074821 1.1119245 4280566900
-0.16580157 -1.407486 1.1118078 4280566900
-0.16580172 -1.4074725 1.1114684 4280566900
-0.16580176 -1.4074514 1.1113764 4280566900
-0.16580181 -1.4074764 1.1112316 4280566900
-0.16580184 -1.4074979 1.1110972 4280566900
-0.1658019 -1.4074875 1.1109875 4280566900
-0.16580196 -1.4074134 1.1109556 4280566900
-0.16580205 -1.4073144 1.1109483 4280566900
-0.16580208 -1.4074919 1.1105174 4280566900
-0.16580212 -1.4074674 1.1104289 4280566900
-0.16580215 -1.407542 1.1102276 4280566900
-0.1658022 -1.4075458 1.1101038 4280566900
-0.16580224 -1.4075283 1.1100084 4280566900
-0.16580229 -1.4076705 1.1096197 4280566900
-0.16580236 -1.4075574 1.1096265 4280566900
-0.16580243 -1.4074867 1.109584 4280566900
-0.16580248 -1.4074869 1.1094708 4280566900
-0.16580252 -1.4075084 1.1093295 4280566900
-0.16580269 -1.4074347 1.1090571 4280566900
-0.16580313 -1.4073234 1.1081164 4280566900
-0.16580313 -1.407437 1.1078691 4280566900
-0.16580325 -1.4075015 1.107445 4280566900
-0.16580336 -1.4074558 1.1072575 4280566900
-0.1658034 -1.4074702 1.1071233 4280566900
-0.16580349 -1.4074565 1.106904 4280566900
-0.16580352 -1.4075347 1.106692 4280566900
-0.16580355 -1.4075739 1.1065259 4280566900
-0.16580361 -1.4075352 1.1064516 4280566900
-0.16580367 -1.4075106 1.1063632 4280566900
-0.16580382 -1.40749 1.1060237 4280566900
-0.16580386 -1.4074832 1.1059176 4280566900
-0.16580394 -1.4075297 1.1056243 4280566900
-0.16580431 -1.4074073 1.1049204 4280566900
-0.16580446 -1.4075004 1.1043338 4280566900
-0.16580451 -1.407497 1.1042171 4280566900
-0.16580455 -1.4075044 1.1040897 4280566900
-0.16580459 -1.4075223 1.1039449 4280566900
-0.16580464 -1.4075013 1.1038529 4280566900
-0.16580467 -1.4075618 1.1036515 4280566900
-0.16580471 -1.4075868 1.1035066 4280566900
-0.16580477 -1.4075623 1.1034111 4280566900
-0.1658048 -1.4076086 1.1032308 4280566900
-0.16580486 -1.4075627 1.1031636 4280566900
-0.16580494 -1.4074956 1.1031175 4280566900
-0.165805 -1.4074357 1.1030643 4280566900
-0.165806 -1.407643 1.1000984 4280566900
-0.16580603 -1.407675 1.0999393 4280566900
-0.16580614 -1.4076117 1.0997624 4280566900
-0.16580616 -1.4077183 1.0995082 4280566900
-0.16580629 -1.4075912 1.0994089 4280566900
-0.16580635 -1.4075596 1.0993204 4280566900
-0.16580643 -1.4075031 1.0992638 4280566900
-0.16580683 -1.4075974 1.0980195 4280566900
-0.16580687 -1.4075942 1.0978957 4280566900
-0.16580693 -1.4075803 1.0977896 4280566900
-0.16580719 -1.4075567 1.097185 4280566900
-0.16580765 -1.4076512 1.0957992 4280566900
-0.16580769 -1.407655 1.0956684 4280566900
-0.16580777 -1.4075915 1.0956188 4280566900
-0.16580783 -1.4075421 1.095548 4280566900
-0.16580832 -1.4077468 1.0938902 4280566900
-0.16580839 -1.4076478 1.0938829 4280566900
-0.165811 -1.4076999 1.0870347 4280566900
-0.16581109 -1.4076188 1.0869957 4280566900
-0.16581117 -1.4075162 1.0869919 4280566900
-0.16581264 -1.4077933 1.0826367 4280566900
-0.16779473 -1.4064685 1.1315094 4280566900
-0.16779499 -1.4065373 1.130707 4280566900
-0.16779503 -1.4065198 1.1306256 4280566900
-0.16779508 -1.4065341 1.1305054 4280566900
-0.16779529 -1.4069433 1.129145 4280566900
-0.16779532 -1.4069684 1.1290143 4280566900
-0.16779536 -1.4069402 1.1289365 4280566900
-0.16779537 -1.4070077 1.1287633 4280566900
-0.1677954 -1.4070363 1.1286219 4280566900
-0.16779584 -1.407223 1.1271586 4280566900
-0.16779588 -1.4072196 1.1270561 4280566900
-0.16779593 -1.4071985 1.1269712 4280566900
-0.16779596 -1.4072412 1.1268157 4280566900
-0.16779603 -1.4072345 1.1266106 4280566900
-0.16779608 -1.4072419 1.1264975 4280566900
-0.16779612 -1.4072244 1.1264091 4280566900
-0.16779616 -1.4072387 1.1262819 4280566900
-0.16779616 -1.4073488 1.1260593 4280566900
-0.16779621 -1.4073278 1.1259744 4280566900
-0.16779625 -1.4073032 1.1258931 4280566900
-0.16779628 -1.4073353 1.1257553 4280566900
-0.16779669 -1.407277 1.1248394 4280566900
-0.16779673 -1.4072877 1.1247228 4280566900
-0.16779676 -1.4073057 1.1245919 4280566900
-0.16779673 -1.4075007 1.1242777 4280566900
-0.16779715 -1.4074993 1.1231923 4280566900
-0.16779719 -1.4075243 1.1230545 4280566900
-0.16779725 -1.4074714 1.1230013 4280566900
-0.1677973 -1.4074503 1.1229165 4280566900
-0.1677974 -1.4074047 1.1227431 4280566900
-0.16779742 -1.4074651 1.12257 4280566900
-0.16779748 -1.4074477 1.1224816 4280566900
-0.1677976 -1.4073595 1.1223506 4280566900
-0.16779763 -1.4073775 1.1222198 4280566900
-0.16779765 -1.4074166 1.1220678 4280566900
-0.16779768 -1.4074522 1.1219265 4280566900
-0.16779771 -1.4074702 1.1217957 4280566900
-0.16779776 -1.4074881 1.1216649 4280566900
-0.16779779 -1.4075096 1.1215307 4280566900
-0.16779788 -1.4075029 1.1213185 4280566900
-0.16779792 -1.4074819 1.1212336 4280566900
-0.16779803 -1.4074469 1.1210426 4280566900
-0.16779807 -1.4074329 1.1209507 4280566900
-0.16779812 -1.4074402 1.1208304 4280566900
-0.16779809 -1.4076176 1.1205338 4280566900
-0.16779816 -1.407554 1.1204842 4280566900
-0.1677983 -1.4075264 1.12018 4280566900
-0.16779834 -1.4075265 1.120074 4280566900
-0.16779839 -1.4075233 1.1199644 4280566900
-0.16779849 -1.4074988 1.1197628 4280566900
-0.16779859 -1.4074355 1.1196142 4280566900
-0.16779856 -1.4076341 1.1192893 4280566900
-0.16779864 -1.407567 1.1192433 4280566900
-0.1677987 -1.4075035 1.1192007 4280566900
-0.16779919 -1.4074563 1.1180197 4280566900
-0.16779925 -1.4074175 1.1179454 4280566900
-0.16779964 -1.4075685 1.1166588 4280566900
-0.16779999 -1.4076555 1.1155417 4280566900
-0.16779999 -1.4077904 1.1152803 4280566900
-0.16780022 -1.4076531 1.1149725 4280566900
-0.16780028 -1.4076002 1.1149123 4280566900
-0.16780035 -1.4075472 1.1148521 4280566900
-0.1678004 -1.4076504 1.1145164 4280566900
-0.16780047 -1.4076934 1.1142406 4280566900
-0.16780055 -1.4076334 1.1141876 4280566900
-0.16780059 -1.4076053 1.1141026 4280566900
-0.16780062 -1.4076657 1.1139225 4280566900
-0.16780066 -1.407666 1.1138093 4280566900
-0.16780071 -1.4076662 1.1136961 4280566900
-0.1678008 -1.4076631 1.1134664 4280566900
-0.16780086 -1.407596 1.1134273 4280566900
-0.16780092 -1.4075679 1.1133424 4280566900
-0.16780095 -1.4076177 1.1131728 4280566900
-0.16780099 -1.4076179 1.1130526 4280566900
-0.16780102 -1.4076358 1.1129148 4280566900
-0.16780181 -1.4075758 1.1110054 4280566900
-0.16780186 -1.4076045 1.110857 4280566900
-0.16780189 -1.4076401 1.1107016 4280566900
-0.16780195 -1.4077256 1.1103764 4280566900
-0.1678023 -1.4077345 1.1094218 4280566900
-0.16780236 -1.4077064 1.109337 4280566900
-0.16780242 -1.4076676 1.1092626 4280566900
-0.16780248 -1.4076325 1.1091847 4280566900
-0.16780253 -1.4076114 1.1090928 4280566900
-0.16780259 -1.4075832 1.1090078 4280566900
-0.16780262 -1.407619 1.1088454 4280566900
-0.16780263 -1.4076971 1.1086475 4280566900
-0.16780277 -1.4075948 1.1085235 4280566900
-0.16780281 -1.4075986 1.1083997 4280566900
-0.16780309 -1.4077065 1.1074525 4280566900
-0.16780317 -1.4076182 1.1074276 4280566900
-0.1678032 -1.4076538 1.107272 4280566900
-0.16780323 -1.4077108 1.1070883 4280566900
-0.16780326 -1.4077464 1.1069329 4280566900
-0.16780332 -1.4077325 1.1068268 4280566900
-0.16780336 -1.407715 1.1067313 4280566900
-0.16780344 -1.4076478 1.1066852 4280566900
-0.16780348 -1.4076445 1.1065685 4280566900
-0.1678035 -1.4077227 1.1063635 4280566900
-0.16780359 -1.4076308 1.1063422 4280566900
-0.16780362 -1.4076382 1.106222 4280566900
-0.16780366 -1.4076738 1.1060594 4280566900
-0.1678037 -1.4076599 1.1059533 4280566900
-0.16780387 -1.4078488 1.105144 4280566900
-0.16780393 -1.4078207 1.1050521 4280566900
-0.16780433 -1.4076062 1.1044542 4280566900
-0.16780466 -1.4077533 1.1033053 4280566900
-0.16780469 -1.4078174 1.1031146 4280566900
-0.16780473 -1.407846 1.102952 4280566900
-0.16780481 -1.4077293 1.1029694 4280566900
-0.16780597 -1.4078487 1.0997311 4280566900
-0.16780604 -1.4077816 1.0996851 4280566900
-0.1678061 -1.4077358 1.0996107 4280566900
-0.16780615 -1.407775 1.0994375 4280566900
-0.16780618 -1.4077929 1.0992926 4280566900
-0.16780624 -1.407779 1.0991865 4280566900
-0.16780645 -1.4079007 1.098416 4280566900
-0.16780654 -1.407777 1.0984335 4280566900
-0.1678066 -1.4077134 1.0983838 4280566900
-0.16780666 -1.407703 1.0982742 4280566900
-0.16780673 -1.4077495 1.0979667 4280566900
-0.16780677 -1.4077923 1.097783 4280566900
-0.16780688 -1.4077574 1.0975708 4280566900
-0.16780694 -1.4077293 1.0974787 4280566900
-0.16780736 -1.4077953 1.0962627 4280566900
-0.16780742 -1.4077849 1.096146 4280566900
-0.16780743 -1.4078737 1.0959092 4280566900
-0.16780749 -1.407828 1.095842 4280566900
-0.16780753 -1.4078672 1.0956688 4280566900
-0.16780758 -1.4078922 1.0955098 4280566900
-0.16780764 -1.4078535 1.0954283 4280566900
-0.16780882 -1.4078948 1.0922889 4280566900
-0.16781031 -1.407984 1.0882621 4280566900
-0.16781038 -1.4079381 1.0881878 4280566900
-0.16781123 -1.4080135 1.0858403 4280566900
-0.16781129 -1.4079605 1.085773 4280566900
-0.16781315 -1.4080089 1.0808693 4280566900
-0.16979413 -1.4064655 1.1330721 4280566900
-0.16979422 -1.4065653 1.1326622 4280566900
-0.16979443 -1.4065344 1.1321707 4280566900
-0.16979447 -1.4065239 1.1320823 4280566900
-0.16979453 -1.4064817 1.1320186 4280566900
-0.16979459 -1.4064429 1.1319513 4280566900
-0.16979474 -1.4066496 1.1311173 4280566900
-0.1697948 -1.4066037 1.1310642 4280566900
-0.16979486 -1.4065756 1.1309863 4280566900
-0.16979493 -1.4066825 1.1305623 4280566900
-0.16979498 -1.4066756 1.1304634 4280566900
-0.16979499 -1.4067254 1.1303149 4280566900
-0.16979522 -1.4070175 1.1291699 4280566900
-0.16979524 -1.4070461 1.1290357 4280566900
-0.16979529 -1.4070498 1.128926 4280566900
-0.16979554 -1.4072038 1.1279259 4280566900
-0.16979559 -1.4072075 1.1278092 4280566900
-0.1697956 -1.4073035 1.1276078 4280566900
-0.16979575 -1.4075314 1.1267314 4280566900
-0.16979593 -1.4074008 1.1265438 4280566900
-0.16979598 -1.4073869 1.1264518 4280566900
-0.16979599 -1.4074473 1.1262858 4280566900
-0.16979603 -1.4074759 1.1261444 4280566900
-0.16979612 -1.4074409 1.1259676 4280566900
-0.16979615 -1.4074872 1.1258086 4280566900
-0.16979617 -1.4075546 1.1256355 4280566900
-0.16979621 -1.4075514 1.125533 4280566900
-0.16979626 -1.4075445 1.1254269 4280566900
-0.16979632 -1.4075022 1.1253631 4280566900
-0.16979642 -1.4074389 1.1252146 4280566900
-0.16979645 -1.4074568 1.1250837 4280566900
-0.16979651 -1.4075458 1.1247764 4280566900
-0.16979654 -1.4075495 1.1246667 4280566900
-0.16979662 -1.4075676 1.1244298 4280566900
-0.16979669 -1.4075147 1.1243768 4280566900
-0.16979674 -1.407586 1.124087 4280566900
-0.16979678 -1.4076074 1.1239526 4280566900
-0.16979682 -1.4075863 1.1238678 4280566900
-0.1697969 -1.4076364 1.123592 4280566900
-0.16979693 -1.4076579 1.1234648 4280566900
-0.16979702 -1.4076228 1.1232809 4280566900
-0.16979708 -1.4075948 1.123203 4280566900
-0.16979712 -1.4075631 1.1231288 4280566900
-0.16979755 -1.4076753 1.1217961 4280566900
-0.1697976 -1.4076719 1.1216936 4280566900
-0.16979769 -1.4076653 1.1214744 4280566900
-0.16979779 -1.4076267 1.121294 4280566900
-0.16979782 -1.4076411 1.1211737 4280566900
-0.16979788 -1.4076201 1.1210818 4280566900
-0.16979794 -1.4075742 1.1210216 4280566900
-0.169798 -1.4075177 1.120972 4280566900
-0.16979811 -1.4076886 1.120343 4280566900
-0.16979817 -1.407657 1.1202687 4280566900
-0.16979823 -1.4076041 1.1202085 4280566900
-0.16979828 -1.4075724 1.1201342 4280566900
-0.16979833 -1.4075797 1.120014 4280566900
-0.16979834 -1.4076543 1.1198196 4280566900
-0.16979839 -1.4076297 1.1197383 4280566900
-0.16979852 -1.4076021 1.1194342 4280566900
-0.16979881 -1.4076921 1.118554 4280566900
-0.16979899 -1.4076859 1.1181085 4280566900
-0.16979948 -1.407621 1.1169381 4280566900
-0.16979951 -1.4076709 1.1167686 4280566900
-0.16979954 -1.4077241 1.1166025 4280566900
-0.16979957 -1.4077598 1.116447 4280566900
-0.16979961 -1.4077672 1.1163268 4280566900
-0.16979963 -1.4078205 1.1161536 4280566900
-0.16979969 -1.4077853 1.1160829 4280566900
-0.16979976 -1.4077218 1.1160333 4280566900
-0.16979979 -1.407761 1.1158813 4280566900
-0.16979983 -1.4077647 1.1157576 4280566900
-0.16979989 -1.4077189 1.1156974 4280566900
-0.16979994 -1.4077014 1.1156019 4280566900
-0.16979997 -1.4077228 1.1154675 4280566900
-0.1698 -1.4077904 1.1152803 4280566900
-0.16980006 -1.4077197 1.1152377 4280566900
-0.16980009 -1.4077908 1.115047 4280566900
-0.1698001 -1.4078726 1.1148456 4280566900
-0.16980018 -1.4077594 1.1148524 4280566900
-0.16980025 -1.4076887 1.114817 4280566900
-0.1698003 -1.4077032 1.1146827 4280566900
-0.1698007 -1.4079359 1.1131663 4280566900
-0.16980074 -1.4079361 1.1130532 4280566900
-0.16980091 -1.4078695 1.1127738 4280566900
-0.16980097 -1.4078236 1.1127136 4280566900
-0.16980103 -1.4077848 1.1126393 4280566900
-0.16980112 -1.4079025 1.1121622 4280566900
-0.16980116 -1.4079027 1.112042 4280566900
-0.16980121 -1.4078888 1.111943 4280566900
-0.16980128 -1.4078145 1.1119111 4280566900
-0.16980135 -1.4077545 1.1118579 4280566900
-0.1698014 -1.4077158 1.1117835 4280566900
-0.16980144 -1.4077338 1.1116457 4280566900
-0.16980146 -1.407819 1.1114408 4280566900
-0.16980147 -1.4079149 1.1112182 4280566900
-0.16980155 -1.4079401 1.1109531 4280566900
-0.16980161 -1.4079226 1.1108576 4280566900
-0.16980165 -1.40793 1.1107303 4280566900
-0.16980173 -1.4079481 1.1104794 4280566900
-0.16980189 -1.4078637 1.1102176 4280566900
-0.16980274 -1.4078147 1.1081562 4280566900
-0.16980287 -1.4079255 1.107559 4280566900
-0.16980304 -1.4079831 1.1070217 4280566900
-0.16980314 -1.4079481 1.1068237 4280566900
-0.1698032 -1.4079236 1.1067281 4280566900
-0.16980328 -1.4079595 1.1064525 4280566900
-0.16980334 -1.4079278 1.106371 4280566900
-0.16980341 -1.4078608 1.1063249 4280566900
-0.16980347 -1.407829 1.1062435 4280566900
-0.16980349 -1.4079001 1.1060386 4280566900
-0.16980352 -1.4079641 1.1058478 4280566900
-0.16980354 -1.4080069 1.1056852 4280566900
-0.1698036 -1.4079823 1.1055897 4280566900
-0.16980365 -1.407979 1.105473 4280566900
-0.16980371 -1.4079403 1.1053988 4280566900
-0.16980378 -1.4078342 1.1053985 4280566900
-0.16980384 -1.407806 1.1053137 4280566900
-0.16980392 -1.4080052 1.1047201 4280566900
-0.16980396 -1.4079949 1.1046175 4280566900
-0.16980419 -1.4079249 1.1042073 4280566900
-0.16980423 -1.4079181 1.1040941 4280566900
-0.16980445 -1.4077879 1.103758 4280566900
-0.1698045 -1.4078094 1.1036096 4280566900
-0.16980451 -1.4079301 1.1033481 4280566900
-0.16980508 -1.4079223 1.1018809 4280566900
-0.16980514 -1.4079119 1.1017642 4280566900
-0.16980517 -1.4079583 1.101591 4280566900
-0.1698052 -1.4080223 1.1013932 4280566900
-0.16980524 -1.4080083 1.10128 4280566900
-0.16980566 -1.4080884 1.100071 4280566900
-0.16980571 -1.4080958 1.0999296 4280566900
-0.16980584 -1.4081178 1.0995337 4280566900
-0.16980593 -1.4079833 1.0995687 4280566900
-0.169806 -1.4079057 1.0995332 4280566900
-0.16980603 -1.4079803 1.0993177 4280566900
-0.16980605 -1.4080585 1.0991057 4280566900
-0.16980633 -1.4080954 1.0983068 4280566900
-0.16980638 -1.4081063 1.098169 4280566900
-0.16980644 -1.4080569 1.0980982 4280566900
-0.16980651 -1.4079899 1.098052 4280566900
-0.16980655 -1.4080291 1.0978788 4280566900
-0.1698066 -1.4080151 1.0977657 4280566900
-0.16980682 -1.4079595 1.0973271 4280566900
-0.16980682 -1.4080801 1.0970587 4280566900
-0.16980761 -1.4081018 1.0949975 4280566900
-0.16980766 -1.4080878 1.0948844 4280566900
-0.16980773 -1.4080349 1.0948242 4280566900
-0.16980778 -1.4080458 1.0946863 4280566900
-0.16980782 -1.4080319 1.0945731 4280566900
-0.16980787 -1.4080889 1.0943753 4280566900
-0.1698079 -1.408114 1.0942162 4280566900
-0.16980797 -1.4080716 1.0941384 4280566900
-0.16980834 -1.4081587 1.0930071 4280566900
-0.1698084 -1.4081271 1.0929116 4280566900
-0.16980863 -1.4080288 1.0925155 4280566900
-0.16980866 -1.4080858 1.0923176 4280566900
-0.16980876 -1.4080898 1.0920523 4280566900
-0.1698088 -1.4081043 1.0919039 4280566900
-0.16980885 -1.4081151 1.0917661 4280566900
-0.16980888 -1.4082075 1.0915188 4280566900
-0.16981016 -1.4081501 1.0883155 4280566900
-0.16981182 -1.4082897 1.0837585 4280566900
-0.17179425 -1.406679 1.1323442 4280566900
-0.17179447 -1.4066021 1.1318986 4280566900
-0.17179455 -1.4066203 1.1316688 4280566900
-0.17179456 -1.4066877 1.1315027 4280566900
-0.17179459 -1.4067234 1.1313615 4280566900
-0.17179464 -1.4067059 1.131273 4280566900
-0.17179485 -1.406895 1.1303506 4280566900
-0.17179494 -1.4069914 1.1299372 4280566900
-0.17179497 -1.4070269 1.1297958 4280566900
-0.17179494 -1.4072113 1.1295062 4280566900
-0.17179514 -1.4071876 1.1290005 4280566900
-0.17179519 -1.4073013 1.1286756 4280566900
-0.17179529 -1.4074403 1.1281066 4280566900
-0.17179537 -1.4073732 1.1280676 4280566900
-0.17179541 -1.4074373 1.1277919 4280566900
-0.17179549 -1.4073844 1.1277388 4280566900
-0.17179552 -1.4073846 1.1276327 4280566900
-0.17179552 -1.4075124 1.1273925 4280566900
-0.17179555 -1.4075303 1.1272688 4280566900
-0.17179559 -1.4075447 1.1271486 4280566900
-0.17179562 -1.4075414 1.1270461 4280566900
-0.17179568 -1.4075239 1.1269577 4280566900
-0.17179573 -1.4075205 1.1268481 4280566900
-0.17179577 -1.4074852 1.1267773 4280566900
-0.17179632 -1.4075946 1.1251582 4280566900
-0.17179634 -1.4076443 1.1250027 4280566900
-0.17179638 -1.4076303 1.1249108 4280566900
-0.17179643 -1.407627 1.1248012 4280566900
-0.17179646 -1.4076768 1.1246387 4280566900
-0.17179652 -1.4076169 1.1245925 4280566900
-0.17179659 -1.4075532 1.1245501 4280566900
-0.1717976 -1.4077926 1.1214534 4280566900
-0.17179765 -1.4077716 1.1213614 4280566900
-0.17179771 -1.4078569 1.1210575 4280566900
-0.17179772 -1.407921 1.1208738 4280566900
-0.17179778 -1.4078892 1.1207995 4280566900
-0.17179784 -1.4078187 1.120764 4280566900
-0.17179795 -1.4077766 1.1205871 4280566900
-0.17179801 -1.4078585 1.1202797 4280566900
-0.17179805 -1.4078375 1.1201878 4280566900
-0.17179815 -1.4078131 1.1199862 4280566900
-0.1717982 -1.4078133 1.1198801 4280566900
-0.17179823 -1.4078383 1.1197423 4280566900
-0.1717983 -1.4077712 1.1196961 4280566900
-0.17179833 -1.4077821 1.1195724 4280566900
-0.17179836 -1.4078355 1.1194063 4280566900
-0.17179841 -1.4078214 1.1193074 4280566900
-0.17179845 -1.4078288 1.1191943 4280566900
-0.17179848 -1.4078538 1.1190493 4280566900
-0.17179853 -1.4078434 1.1189538 4280566900
-0.1717986 -1.407787 1.1188972 4280566900
-0.17179862 -1.4078261 1.1187452 4280566900
-0.17179869 -1.4077731 1.118692 4280566900
-0.17179874 -1.4077663 1.1185859 4280566900
-0.17179884 -1.4079407 1.1179464 4280566900
-0.17179956 -1.408026 1.1159348 4280566900
-0.17179962 -1.4079872 1.1158606 4280566900
-0.17179966 -1.4079875 1.1157475 4280566900
-0.1717997 -1.4079735 1.1156484 4280566900
-0.17179975 -1.4079914 1.1155176 4280566900
-0.17179979 -1.4079881 1.1154009 4280566900
-0.17179985 -1.4079459 1.1153373 4280566900
-0.17179987 -1.4080275 1.1151358 4280566900
-0.17179991 -1.40801 1.1150403 4280566900
-0.17179996 -1.4080067 1.1149307 4280566900
-0.1718 -1.4080353 1.1147823 4280566900
-0.17180003 -1.4080391 1.1146656 4280566900
-0.17180011 -1.407979 1.1146125 4280566900
-0.17180037 -1.4078491 1.1141844 4280566900
-0.17180039 -1.4079307 1.113983 4280566900
-0.17180042 -1.4079629 1.113831 4280566900
-0.17180049 -1.4079028 1.1137779 4280566900
-0.17180052 -1.4079101 1.1136577 4280566900
-0.17180057 -1.4079353 1.1135129 4280566900
-0.1718006 -1.4079531 1.1133821 4280566900
-0.17180069 -1.4079784 1.113117 4280566900
-0.17180073 -1.4079751 1.1130073 4280566900
-0.17180076 -1.4080213 1.1128412 4280566900
-0.17180082 -1.4080962 1.1125268 4280566900
-0.17180087 -1.4080929 1.1124171 4280566900
-0.17180094 -1.4080329 1.1123639 4280566900
-0.17180099 -1.4080083 1.1122755 4280566900
-0.17180157 -1.4080325 1.1107341 4280566900
-0.17180163 -1.4079902 1.1106633 4280566900
-0.17180161 -1.4081604 1.1103595 4280566900
-0.17180192 -1.4080237 1.1098113 4280566900
-0.17180198 -1.408024 1.1096911 4280566900
-0.171802 -1.4080986 1.1094897 4280566900
-0.17180203 -1.4081271 1.1093413 4280566900
-0.17180209 -1.4081061 1.1092494 4280566900
-0.17180213 -1.4080744 1.1091679 4280566900
-0.17180219 -1.4080428 1.1090795 4280566900
-0.17180224 -1.408043 1.1089664 4280566900
-0.17180227 -1.408107 1.1087755 4280566900
-0.17180237 -1.4080862 1.1085634 4280566900
-0.17180252 -1.4080231 1.1082804 4280566900
-0.17180254 -1.4081155 1.1080543 4280566900
-0.17180257 -1.4081511 1.1078988 4280566900
-0.17180261 -1.4081868 1.1077434 4280566900
-0.17180268 -1.4081055 1.1077113 4280566900
-0.17180274 -1.4080526 1.1076581 4280566900
-0.17180279 -1.40806 1.107531 4280566900
-0.17180283 -1.4080424 1.1074283 4280566900
-0.17180289 -1.4080143 1.1073434 4280566900
-0.17180295 -1.4080003 1.1072373 4280566900
-0.17180298 -1.4080431 1.1070749 4280566900
-0.17180303 -1.4080186 1.1069794 4280566900
-0.17180307 -1.4080117 1.1068733 4280566900
-0.17180315 -1.4079659 1.1067989 4280566900
-0.17180318 -1.4079802 1.1066645 4280566900
-0.17180362 -1.40816 1.1051517 4280566900
-0.1718037 -1.4080893 1.1051091 4280566900
-0.17180374 -1.4081109 1.1049677 4280566900
-0.17180379 -1.4081181 1.1048335 4280566900
-0.17180385 -1.4080617 1.1047767 4280566900
-0.17180385 -1.4082355 1.1044554 4280566900
-0.17180389 -1.4082038 1.1043739 4280566900
-0.17180413 -1.4080772 1.1040343 4280566900
-0.17180416 -1.4081165 1.1038682 4280566900
-0.17180499 -1.4082199 1.1015279 4280566900
-0.17180507 -1.4081032 1.1015383 4280566900
-0.17180513 -1.4080681 1.1014605 4280566900
-0.17180517 -1.4080861 1.1013155 4280566900
-0.1718052 -1.4081572 1.1011035 4280566900
-0.17180561 -1.4081166 1.1001559 4280566900
-0.17180561 -1.4082408 1.0998909 4280566900
-0.17180566 -1.4082092 1.0997955 4280566900
-0.17180571 -1.4082307 1.099647 4280566900
-0.17180575 -1.4082381 1.0995127 4280566900
-0.17180662 -1.4082921 1.0971793 4280566900
-0.17180666 -1.4082993 1.0970449 4280566900
-0.17180671 -1.4082996 1.0969177 4280566900
-0.17180699 -1.4083259 1.0961293 4280566900
-0.17180702 -1.4083935 1.0959209 4280566900
-0.1718071 -1.408337 1.0958642 4280566900
-0.17180726 -1.4082597 1.0955741 4280566900
-0.1718073 -1.4082813 1.0954186 4280566900
-0.17180744 -1.4083352 1.0949768 4280566900
-0.17180751 -1.4082645 1.0949271 4280566900
-0.17180751 -1.4083924 1.0946516 4280566900
-0.17180757 -1.4083997 1.0945102 4280566900
-0.17180765 -1.4083114 1.0944923 4280566900
-0.17180769 -1.4082974 1.0943792 4280566900
-0.17180772 -1.4083722 1.0941637 4280566900
-0.17180791 -1.4084157 1.093591 4280566900
-0.17180826 -1.4084351 1.0926683 4280566900
-0.17180836 -1.408432 1.0924102 4280566900
-0.17180841 -1.4084252 1.0922899 4280566900
-0.17180847 -1.4083936 1.0922015 4280566900
-0.17180853 -1.4083513 1.0921236 4280566900
-0.17180903 -1.408375 1.0907943 4280566900
-0.17180981 -1.4084961 1.0885495 4280566900
-0.17180988 -1.4084255 1.0884998 4280566900
-0.17180993 -1.4083939 1.0884113 4280566900
-0.17181069 -1.4084544 1.0863538 4280566900
-0.17379457 -1.4068936 1.131086 4280566900
-0.17379464 -1.4068053 1.1310681 4280566900
-0.17379469 -1.406809 1.1309586 4280566900
-0.17379487 -1.4072642 1.1295594 4280566900
-0.17379493 -1.4072467 1.1294709 4280566900
-0.17379497 -1.4072222 1.1293895 4280566900
-0.17379501 -1.407226 1.12928 4280566900
-0.17379501 -1.4075241 1.1286583 4280566900
-0.17379506 -1.4075102 1.1285664 4280566900
-0.17379512 -1.4074891 1.1284814 4280566900
-0.17379516 -1.4074715 1.1283931 4280566900
-0.17379516 -1.4075533 1.1282058 4280566900
-0.17379518 -1.407635 1.1280186 4280566900
-0.17379519 -1.4076989 1.1278419 4280566900
-0.17379525 -1.4076531 1.1277817 4280566900
-0.17379531 -1.4076284 1.1277003 4280566900
-0.17379533 -1.4076782 1.1275449 4280566900
-0.17379537 -1.4076749 1.1274424 4280566900
-0.17379542 -1.4076751 1.1273363 4280566900
-0.17379545 -1.4076966 1.1272091 4280566900
-0.17379563 -1.4076655 1.1268095 4280566900
-0.17379566 -1.4076799 1.1266893 4280566900
-0.17379571 -1.407627 1.1266361 4280566900
-0.17379576 -1.4077621 1.1262829 4280566900
-0.1737958 -1.4077374 1.1262015 4280566900
-0.17379586 -1.4076952 1.1261377 4280566900
-0.17379589 -1.4077202 1.1259999 4280566900
-0.17379592 -1.4077381 1.1258762 4280566900
-0.17379598 -1.407717 1.1257913 4280566900
-0.17379603 -1.4077066 1.1256888 4280566900
-0.17379607 -1.4077069 1.1255827 4280566900
-0.1737961 -1.4077389 1.1254449 4280566900
-0.17379615 -1.4077108 1.125367 4280566900
-0.17379618 -1.4077535 1.1252116 4280566900
-0.17379621 -1.4077855 1.1250666 4280566900
-0.1737965 -1.4079788 1.1238933 4280566900
-0.17379668 -1.4079512 1.1234902 4280566900
-0.17379732 -1.4079686 1.1218214 4280566900
-0.17379737 -1.4079405 1.1217365 4280566900
-0.17379747 -1.4079055 1.1215596 4280566900
-0.17379744 -1.4080828 1.121263 4280566900
-0.17379749 -1.4080867 1.1211463 4280566900
-0.17379759 -1.408041 1.120973 4280566900
-0.17379762 -1.4080731 1.1208282 4280566900
-0.17379765 -1.4080981 1.1206902 4280566900
-0.17379771 -1.40807 1.1206053 4280566900
-0.17379777 -1.4080064 1.1205628 4280566900
-0.17379785 -1.4079499 1.1205132 4280566900
-0.17379788 -1.4079785 1.1203718 4280566900
-0.17379801 -1.4079791 1.1200324 4280566900
-0.17379805 -1.4079723 1.1199335 4280566900
-0.17379808 -1.4080008 1.1197921 4280566900
-0.17379813 -1.4079905 1.1196896 4280566900
-0.17379819 -1.4079411 1.1196328 4280566900
-0.17379828 -1.4080728 1.1191558 4280566900
-0.17379834 -1.4080234 1.1190991 4280566900
-0.17379838 -1.4079952 1.1190143 4280566900
-0.17379843 -1.4080132 1.1188835 4280566900
-0.17379846 -1.4080489 1.1187279 4280566900
-0.1737985 -1.4080385 1.1186326 4280566900
-0.17379935 -1.408096 1.1163098 4280566900
-0.17379962 -1.4080937 1.1156344 4280566900
-0.17379984 -1.4082049 1.114825 4280566900
-0.17379987 -1.4082654 1.1146449 4280566900
-0.17379992 -1.4082443 1.1145529 4280566900
-0.17379996 -1.408241 1.1144433 4280566900
-0.17380001 -1.4082341 1.1143372 4280566900
-0.17380008 -1.408167 1.1142982 4280566900
-0.17380014 -1.4081141 1.1142379 4280566900
-0.17380044 -1.408293 1.113121 4280566900
-0.1738005 -1.408233 1.113075 4280566900
-0.17380115 -1.408286 1.111272 4280566900
-0.17380176 -1.4082464 1.109794 4280566900
-0.17380227 -1.4083555 1.1082598 4280566900
-0.17380235 -1.408299 1.1082032 4280566900
-0.17380239 -1.408271 1.1081183 4280566900
-0.17380241 -1.4083774 1.1078851 4280566900
-0.17380245 -1.4083883 1.1077543 4280566900
-0.17380251 -1.4083459 1.1076835 4280566900
-0.17380257 -1.4083072 1.1076021 4280566900
-0.17380261 -1.4083216 1.1074678 4280566900
-0.17380266 -1.4082829 1.1073935 4280566900
-0.17380272 -1.4082547 1.1073086 4280566900
-0.17380275 -1.4083011 1.1071424 4280566900
-0.17380279 -1.408312 1.1070046 4280566900
-0.17380285 -1.4082838 1.1069198 4280566900
-0.1738029 -1.4082841 1.1067995 4280566900
-0.17380294 -1.4082843 1.1066793 4280566900
-0.17380297 -1.408327 1.1065167 4280566900
-0.17380302 -1.4083556 1.1063613 4280566900
-0.17380306 -1.4083416 1.1062622 4280566900
-0.17380311 -1.4083455 1.1061385 4280566900
-0.17380317 -1.4083031 1.1060677 4280566900
-0.17380323 -1.408275 1.1059757 4280566900
-0.17380328 -1.408247 1.1058837 4280566900
-0.17380331 -1.4082507 1.105767 4280566900
-0.17380334 -1.4083111 1.1055799 4280566900
-0.1738034 -1.408276 1.1054949 4280566900
-0.17380343 -1.4083436 1.1053005 4280566900
-0.17380348 -1.4083225 1.1052015 4280566900
-0.17380354 -1.4083121 1.1050919 4280566900
-0.17380357 -1.4083549 1.1049293 4280566900
-0.17380363 -1.4083196 1.1048515 4280566900
-0.1738037 -1.4082384 1.1048195 4280566900
-0.17380376 -1.4082032 1.1047347 4280566900
-0.17380369 -1.4085684 1.1041944 4280566900
-0.17380376 -1.4084765 1.1041801 4280566900
-0.17380384 -1.4083917 1.1041586 4280566900
-0.17380394 -1.4085022 1.1036603 4280566900
-0.17380404 -1.4083359 1.1037343 4280566900
-0.17380413 -1.4082228 1.1037412 4280566900
-0.17380416 -1.4082478 1.1035892 4280566900
-0.17380463 -1.4084418 1.1020128 4280566900
-0.17380475 -1.4085346 1.1015321 4280566900
-0.1738048 -1.4084995 1.1014471 4280566900
-0.17380486 -1.4084713 1.1013552 4280566900
-0.17380492 -1.408429 1.1012844 4280566900
-0.17380498 -1.4083619 1.1012383 4280566900
-0.17380503 -1.4083693 1.1011039 4280566900
-0.17380506 -1.4084404 1.100899 4280566900
-0.17380512 -1.4084017 1.1008176 4280566900
-0.17380518 -1.4083948 1.1006974 4280566900
-0.17380553 -1.4084605 1.0996298 4280566900
-0.17380659 -1.4086788 1.0964694 4280566900
-0.17380665 -1.4086152 1.0964198 4280566900
-0.17380674 -1.4085197 1.096409 4280566900
-0.17380676 -1.4086087 1.0961723 4280566900
-0.17380682 -1.4085735 1.0960873 4280566900
-0.17380711 -1.4087311 1.0950059 4280566900
-0.17380717 -1.4086818 1.0949421 4280566900
-0.17380725 -1.4086324 1.0948713 4280566900
-0.17380729 -1.4086362 1.0947334 4280566900
-0.17380758 -1.408666 1.0939344 4280566900
-0.17380764 -1.4086308 1.0938495 4280566900
-0.17380789 -1.4085007 1.0934922 4280566900
-0.1738079 -1.4085753 1.0932696 4280566900
-0.17380796 -1.4085615 1.0931635 4280566900
-0.17380801 -1.4085795 1.0930043 4280566900
-0.17380804 -1.4086647 1.0927783 4280566900
-0.17380862 -1.4087386 1.0911309 4280566900
-0.17380868 -1.4086999 1.0910494 4280566900
-0.17381296 -1.4090798 1.0792451 4280566900
-0.17381458 -1.4093719 1.0744727 4280566900
-0.17579427 -1.4069382 1.1317685 4280566900
-0.1757943 -1.4069456 1.1316624 4280566900
-0.17579436 -1.4069033 1.1315987 4280566900
-0.17579441 -1.4068857 1.1315103 4280566900
-0.1757946 -1.4070251 1.1307433 4280566900
-0.17579463 -1.4070501 1.1306125 4280566900
-0.17579463 -1.4071494 1.1304077 4280566900
-0.17579468 -1.4071355 1.1303157 4280566900
-0.17579469 -1.4072989 1.1299412 4280566900
-0.17579469 -1.4074054 1.1297293 4280566900
-0.17579472 -1.4074552 1.1295738 4280566900
-0.17579474 -1.4075015 1.1294219 4280566900
-0.1757948 -1.4074804 1.1293371 4280566900
-0.17579482 -1.407477 1.1292346 4280566900
-0.17579487 -1.4076015 1.1288989 4280566900
-0.17579491 -1.407584 1.1288104 4280566900
-0.175795 -1.4075559 1.1286266 4280566900
-0.17579502 -1.4076128 1.128464 4280566900
-0.17579503 -1.4077016 1.1282697 4280566900
-0.17579505 -1.4077621 1.1280966 4280566900
-0.17579512 -1.4076914 1.1280682 4280566900
-0.1757952 -1.407596 1.1280574 4280566900
-0.17579518 -1.4077308 1.1278101 4280566900
-0.17579526 -1.4079796 1.1271318 4280566900
-0.17579533 -1.4078771 1.1271281 4280566900
-0.17579541 -1.4077958 1.1271032 4280566900
-0.17579548 -1.4077216 1.1270713 4280566900
-0.17579551 -1.407949 1.1265202 4280566900
-0.17579557 -1.4079031 1.12646 4280566900
-0.17579563 -1.4078749 1.1263821 4280566900
-0.17579561 -1.4080169 1.1261278 4280566900
-0.17579567 -1.407964 1.1260747 4280566900
-0.17579573 -1.4079217 1.1260109 4280566900
-0.17579578 -1.4078971 1.1259296 4280566900
-0.17579581 -1.4079576 1.1257565 4280566900
-0.17579584 -1.4079683 1.1256398 4280566900
-0.17579591 -1.4078941 1.1256078 4280566900
-0.17579596 -1.4078766 1.1255194 4280566900
-0.17579599 -1.40793 1.1253533 4280566900
-0.17579599 -1.4080436 1.1251273 4280566900
-0.17579617 -1.4079983 1.1247418 4280566900
-0.17579623 -1.4079632 1.1246711 4280566900
-0.17579624 -1.4080164 1.1245049 4280566900
-0.17579688 -1.4081261 1.1226455 4280566900
-0.17579693 -1.4081051 1.1225606 4280566900
-0.17579699 -1.4080876 1.1224651 4280566900
-0.17579722 -1.4081349 1.1217545 4280566900
-0.17579725 -1.4081634 1.1216203 4280566900
-0.17579727 -1.408231 1.121433 4280566900
-0.17579731 -1.4082171 1.1213411 4280566900
-0.17579737 -1.4081819 1.1212633 4280566900
-0.17579772 -1.40818 1.1203758 4280566900
-0.17579775 -1.4082192 1.1202239 4280566900
-0.17579778 -1.4082443 1.120086 4280566900
-0.17579782 -1.4082373 1.119987 4280566900
-0.17579788 -1.408195 1.1199162 4280566900
-0.17579791 -1.4082555 1.1197431 4280566900
-0.17579794 -1.4082663 1.1196194 4280566900
-0.175798 -1.4082134 1.1195662 4280566900
-0.17579807 -1.4081534 1.119513 4280566900
-0.17579812 -1.4082673 1.1191669 4280566900
-0.17579816 -1.4082497 1.1190784 4280566900
-0.17579819 -1.408289 1.1189264 4280566900
-0.17579824 -1.4082856 1.1188169 4280566900
-0.1757983 -1.4082503 1.118739 4280566900
-0.17579831 -1.4083037 1.118573 4280566900
-0.17579837 -1.4082686 1.1184951 4280566900
-0.17579842 -1.40829 1.1183608 4280566900
-0.17579843 -1.4083469 1.1181911 4280566900
-0.17579849 -1.408294 1.1181309 4280566900
-0.17579855 -1.4082764 1.1180425 4280566900
-0.17579858 -1.4082909 1.1179082 4280566900
-0.17579864 -1.4082485 1.1178445 4280566900
-0.17579977 -1.4082826 1.1148605 4280566900
-0.17579982 -1.4082829 1.1147404 4280566900
-0.17579994 -1.4082266 1.1145705 4280566900
-0.17579989 -1.4084678 1.1141962 4280566900
-0.17579992 -1.4084821 1.114069 4280566900
-0.1758 -1.4084079 1.114037 4280566900
-0.17580006 -1.4083586 1.1139733 4280566900
-0.17580009 -1.408412 1.1138002 4280566900
-0.17580014 -1.4083625 1.1137364 4280566900
-0.17580019 -1.4083521 1.1136339 4280566900
-0.1758002 -1.4084445 1.1134219 4280566900
-0.17580025 -1.4084306 1.1133158 4280566900
-0.17580032 -1.4083741 1.1132662 4280566900
-0.17580038 -1.4083141 1.1132131 4280566900
-0.17580043 -1.4083036 1.1131105 4280566900
-0.17580047 -1.4083074 1.1129938 4280566900
-0.1758005 -1.4083608 1.1128136 4280566900
-0.17580056 -1.4083363 1.1127251 4280566900
-0.17580059 -1.4083542 1.1125944 4280566900
-0.17580132 -1.4084891 1.1104628 4280566900
-0.17580137 -1.4084893 1.1103497 4280566900
-0.17580141 -1.4084648 1.1102612 4280566900
-0.17580147 -1.4084473 1.1101586 4280566900
-0.17580147 -1.4085503 1.109929 4280566900
-0.1758015 -1.4086249 1.1097276 4280566900
-0.17580156 -1.4085684 1.1096709 4280566900
-0.17580163 -1.4084978 1.1096355 4280566900
-0.17580169 -1.4084625 1.1095576 4280566900
-0.17580172 -1.4084769 1.1094233 4280566900
-0.17580177 -1.408502 1.1092783 4280566900
-0.17580181 -1.4084846 1.1091758 4280566900
-0.17580184 -1.4085344 1.1090062 4280566900
-0.17580202 -1.4085742 1.1084865 4280566900
-0.17580208 -1.4085213 1.1084334 4280566900
-0.17580216 -1.4085714 1.1081436 4280566900
-0.17580228 -1.4084868 1.1079949 4280566900
-0.17580238 -1.4084554 1.1077933 4280566900
-0.17580242 -1.4084485 1.1076872 4280566900
-0.17580248 -1.4084239 1.1075917 4280566900
-0.17580248 -1.4085447 1.1073375 4280566900
-0.17580254 -1.4085201 1.107249 4280566900
-0.1758026 -1.4084778 1.1071782 4280566900
-0.17580265 -1.4084674 1.1070685 4280566900
-0.17580268 -1.4085279 1.1068813 4280566900
-0.17580271 -1.4085813 1.1067011 4280566900
-0.17580277 -1.4085248 1.1066515 4280566900
-0.17580283 -1.4084824 1.1065736 4280566900
-0.17580289 -1.4084437 1.1064993 4280566900
-0.17580293 -1.4084617 1.1063615 4280566900
-0.17580298 -1.4084619 1.1062412 4280566900
-0.17580302 -1.4084374 1.1061528 4280566900
-0.17580307 -1.4084482 1.106022 4280566900
-0.17580315 -1.4084735 1.1057498 4280566900
-0.17580318 -1.4085268 1.1055696 4280566900
-0.17580321 -1.4085484 1.1054282 4280566900
-0.17580324 -1.4086018 1.105248 4280566900
-0.1758033 -1.4085878 1.1051419 4280566900
-0.17580335 -1.4085597 1.105057 4280566900
-0.17580403 -1.4085275 1.1033882 4280566900
-0.17580442 -1.4086502 1.1021369 4280566900
-0.17580448 -1.4085972 1.1020766 4280566900
-0.1758047 -1.4088007 1.1010906 4280566900
-0.17580487 -1.4087483 1.100783 4280566900
-0.17580491 -1.4087414 1.1006627 4280566900
-0.17580497 -1.4087098 1.1005813 4280566900
-0.17580605 -1.4088429 1.0975339 4280566900
-0.17580611 -1.408797 1.0974667 4280566900
-0.17580716 -1.4089195 1.0945219 4280566900
-0.17580722 -1.4088807 1.0944405 4280566900
-0.17580742 -1.4090272 1.093624 4280566900
-0.17580749 -1.4089707 1.0935674 4280566900
-0.17580755 -1.4089249 1.093493 4280566900
-0.1758076 -1.4089465 1.0933374 4280566900
-0.17580763 -1.4090211 1.0931149 4280566900
-0.17580771 -1.4089044 1.0931252 4280566900
-0.17580777 -1.4088728 1.0930368 4280566900
-0.1758078 -1.4089155 1.0928601 4280566900
-0.17580783 -1.4089937 1.092634 4280566900
-0.17580788 -1.4090117 1.092482 4280566900
-0.17580795 -1.4089447 1.0924358 4280566900
-0.17580801 -1.4088846 1.0923756 4280566900
-0.17580809 -1.4088211 1.092326 4280566900
-0.17580859 -1.4089869 1.090693 4280566900
-0.17580865 -1.408934 1.0906256 4280566900
-0.17581047 -1.4091845 1.0854502 4280566900
-0.17581047 -1.4093512 1.0851074 4280566900
-0.17779411 -1.4071256 1.1317935 4280566900
-0.17779416 -1.4070975 1.1317158 4280566900
-0.17779426 -1.4070624 1.1315389 4280566900
-0.17779428 -1.4071052 1.1313975 4280566900
-0.17779444 -1.4073083 1.1305671 4280566900
-0.17779449 -1.4073014 1.130468 4280566900
-0.17779452 -1.4073441 1.1303196 4280566900
-0.17779461 -1.4075433 1.1296978 4280566900
-0.17779468 -1.4076679 1.1292561 4280566900
-0.17779468 -1.4077425 1.1290759 4280566900
-0.17779472 -1.4077392 1.1289734 4280566900
-0.17779478 -1.407711 1.1288955 4280566900
-0.17779487 -1.4079102 1.1282666 4280566900
-0.17779489 -1.4079494 1.1281217 4280566900
-0.17779493 -1.407939 1.1280262 4280566900
-0.17779496 -1.4079994 1.1278602 4280566900
-0.17779498 -1.4080456 1.1277082 4280566900
-0.17779502 -1.4080389 1.1276021 4280566900
-0.17779523 -1.4079227 1.1272943 4280566900
-0.17779523 -1.4080504 1.1270612 4280566900
-0.17779528 -1.4080329 1.1269728 4280566900
-0.17779532 -1.4080296 1.1268632 4280566900
-0.17779534 -1.4080971 1.1266901 4280566900
-0.17779537 -1.4081115 1.12657 4280566900
-0.17779541 -1.4081011 1.1264673 4280566900
-0.17779556 -1.4082757 1.1257499 4280566900
-0.17779562 -1.408244 1.1256757 4280566900
-0.17779566 -1.4082017 1.125612 4280566900
-0.17779574 -1.4081417 1.1255659 4280566900
-0.17779578 -1.408142 1.1254598 4280566900
-0.17779592 -1.4081072 1.1251699 4280566900
-0.17779595 -1.408118 1.1250532 4280566900
-0.17779598 -1.4081537 1.1249048 4280566900
-0.17779602 -1.4081715 1.124781 4280566900
-0.17779607 -1.4081504 1.1246961 4280566900
-0.17779621 -1.408215 1.1241943 4280566900
-0.17779627 -1.4081479 1.1241553 4280566900
-0.17779624 -1.4083359 1.123848 4280566900
-0.17779647 -1.4081916 1.1235614 4280566900
-0.17779657 -1.4082773 1.1231443 4280566900
-0.17779663 -1.408235 1.1230806 4280566900
-0.17779665 -1.4082882 1.1229146 4280566900
-0.17779668 -1.408331 1.122759 4280566900
-0.17779671 -1.4083525 1.1226318 4280566900
-0.1777968 -1.4083458 1.1224197 4280566900
-0.17779681 -1.4084239 1.1222289 4280566900
-0.17779693 -1.4082258 1.1223204 4280566900
-0.17779696 -1.408265 1.1221756 4280566900
-0.177797 -1.4082369 1.1220907 4280566900
-0.17779708 -1.4084076 1.1215819 4280566900
-0.17779711 -1.4084255 1.121451 4280566900
-0.1777972 -1.4084224 1.1212354 4280566900
-0.17779721 -1.4084898 1.1210552 4280566900
-0.17779727 -1.4084369 1.120995 4280566900
-0.17779736 -1.4083273 1.1210054 4280566900
-0.17779742 -1.4082744 1.1209452 4280566900
-0.17779745 -1.4083065 1.1208003 4280566900
-0.17779747 -1.4083881 1.1206061 4280566900
-0.17779751 -1.4083955 1.1204858 4280566900
-0.17779756 -1.4083709 1.1204045 4280566900
-0.17779765 -1.4083749 1.1201746 4280566900
-0.1777977 -1.4083326 1.1201038 4280566900
-0.17779772 -1.4083966 1.1199272 4280566900
-0.17779776 -1.4084039 1.119807 4280566900
-0.17779785 -1.408376 1.119616 4280566900
-0.17779809 -1.4084623 1.1188525 4280566900
-0.17779817 -1.4083775 1.1188312 4280566900
-0.17779818 -1.408445 1.1186439 4280566900
-0.17779839 -1.4084744 1.118057 4280566900
-0.17779844 -1.4084569 1.1179615 4280566900
-0.17779864 -1.4084758 1.1173782 4280566900
-0.1777987 -1.4084512 1.1172898 4280566900
-0.17779879 -1.4084268 1.1170882 4280566900
-0.17779887 -1.408498 1.1167843 4280566900
-0.17779891 -1.4084806 1.1166888 4280566900
-0.17779894 -1.4085163 1.1165403 4280566900
-0.17779896 -1.4085838 1.1163532 4280566900
-0.17779915 -1.4085351 1.11595 4280566900
-0.17779921 -1.4085211 1.1158509 4280566900
-0.17779925 -1.4085178 1.1157414 4280566900
-0.17779931 -1.4085962 1.1154304 4280566900
-0.17779936 -1.408561 1.1153525 4280566900
-0.17779946 -1.4083982 1.1154158 4280566900
-0.17779948 -1.4085047 1.1151898 4280566900
-0.17779949 -1.4085758 1.1149991 4280566900
-0.17779955 -1.40853 1.1149317 4280566900
-0.17779967 -1.4084454 1.1147972 4280566900
-0.17779973 -1.4084208 1.1147088 4280566900
-0.17779975 -1.4084848 1.1145251 4280566900
-0.17780004 -1.4086496 1.1134223 4280566900
-0.17780012 -1.4085683 1.1133974 4280566900
-0.17780018 -1.4085118 1.1133478 4280566900
-0.17780021 -1.408551 1.1131887 4280566900
-0.17780025 -1.4085584 1.1130615 4280566900
-0.17780069 -1.4087203 1.1116087 4280566900
-0.1778008 -1.408657 1.1114459 4280566900
-0.17780095 -1.408757 1.1108733 4280566900
-0.1778011 -1.4087117 1.1105728 4280566900
-0.17780118 -1.408744 1.1103005 4280566900
-0.17780124 -1.4087229 1.1102086 4280566900
-0.17780142 -1.4085854 1.1100068 4280566900
-0.17780209 -1.4087485 1.1079459 4280566900
-0.17780231 -1.4087639 1.1073308 4280566900
-0.17780273 -1.4088937 1.1059946 4280566900
-0.17780282 -1.408777 1.106012 4280566900
-0.17780289 -1.4087135 1.1059624 4280566900
-0.17780297 -1.4086357 1.1059269 4280566900
-0.17780299 -1.4088027 1.1054994 4280566900
-0.17780301 -1.4088951 1.1052734 4280566900
-0.17780304 -1.4089733 1.1050614 4280566900
-0.17780311 -1.4088495 1.1050858 4280566900
-0.17780319 -1.4087789 1.1050433 4280566900
-0.17780326 -1.4087154 1.1049937 4280566900
-0.17780329 -1.4087722 1.10481 4280566900
-0.17780359 -1.4088341 1.1038873 4280566900
-0.17780365 -1.4088309 1.1037706 4280566900
-0.17780368 -1.4088843 1.1035833 4280566900
-0.17780378 -1.408828 1.1034064 4280566900
-0.17780384 -1.4087929 1.1033216 4280566900
-0.17780389 -1.4088215 1.103166 4280566900
-0.17780392 -1.4088571 1.1030035 4280566900
-0.17780407 -1.4089643 1.1023885 4280566900
-0.17780413 -1.4089327 1.1023 4280566900
-0.17780456 -1.4089348 1.1011828 4280566900
-0.1778046 -1.4089457 1.1010449 4280566900
-0.17780466 -1.4089035 1.1009741 4280566900
-0.17780474 -1.4088576 1.1008998 4280566900
-0.17780472 -1.4090315 1.1005714 4280566900
-0.17780478 -1.4089963 1.1004864 4280566900
-0.17780486 -1.4089327 1.1004438 4280566900
-0.1778049 -1.4089578 1.1002848 4280566900
-0.17780493 -1.4089971 1.1001116 4280566900
-0.17780499 -1.4089476 1.1000479 4280566900
-0.17780507 -1.408884 1.0999982 4280566900
-0.1778058 -1.4088806 1.0981174 4280566900
-0.177807 -1.4092665 1.0942326 4280566900
-0.17780705 -1.4092525 1.0941194 4280566900
-0.17780741 -1.4092188 1.0932637 4280566900
-0.17780747 -1.4092332 1.0931153 4280566900
-0.17780749 -1.4092654 1.0929492 4280566900
-0.17780758 -1.4092907 1.0926558 4280566900
-0.17979348 -1.4071934 1.1332786 4280566900
-0.17979351 -1.4072326 1.1331338 4280566900
-0.17979369 -1.4071021 1.1329532 4280566900
-0.1797937 -1.4071697 1.1327871 4280566900
-0.17979372 -1.4072194 1.1326317 4280566900
-0.17979376 -1.4071949 1.1325502 4280566900
-0.17979382 -1.4071703 1.132476 4280566900
-0.17979385 -1.407174 1.1323664 4280566900
-0.17979388 -1.4072061 1.1322356 4280566900
-0.17979392 -1.4072027 1.1321331 4280566900
-0.17979397 -1.4071816 1.1320482 4280566900
-0.17979398 -1.4072456 1.1318786 4280566900
-0.17979401 -1.4072919 1.1317338 4280566900
-0.17979406 -1.4072638 1.1316559 4280566900
-0.1797941 -1.4072392 1.1315745 4280566900
-0.17979415 -1.4072499 1.1314579 4280566900
-0.17979418 -1.4072821 1.1313201 4280566900
-0.17979418 -1.4073744 1.1311294 4280566900
-0.17979422 -1.4073639 1.1310339 4280566900
-0.17979425 -1.4073819 1.1309102 4280566900
-0.17979427 -1.4074388 1.1307477 4280566900
-0.1797943 -1.4074992 1.1305816 4280566900
-0.17979433 -1.4074959 1.130479 4280566900
-0.17979433 -1.4076235 1.1302459 4280566900
-0.17979439 -1.4075884 1.1301751 4280566900
-0.17979443 -1.4075814 1.1300762 4280566900
-0.17979443 -1.4076737 1.1298854 4280566900
-0.17979445 -1.4077307 1.1297228 4280566900
-0.17979446 -1.4078052 1.1295427 4280566900
-0.17979449 -1.4078444 1.1293907 4280566900
-0.17979454 -1.4078305 1.1292988 4280566900
-0.17979456 -1.4078306 1.1291999 4280566900
-0.17979459 -1.4078662 1.1290585 4280566900
-0.17979462 -1.4079232 1.1288888 4280566900
-0.17979462 -1.4081113 1.1284897 4280566900
-0.17979468 -1.4080796 1.1284153 4280566900
-0.17979476 -1.4079983 1.1283906 4280566900
-0.17979476 -1.4080801 1.1282033 4280566900
-0.17979479 -1.4081016 1.1280761 4280566900
-0.17979483 -1.4080911 1.1279806 4280566900
-0.17979488 -1.4081197 1.1278392 4280566900
-0.17979491 -1.4082228 1.1275247 4280566900
-0.17979497 -1.4081734 1.1274681 4280566900
-0.17979501 -1.4081665 1.127369 4280566900
-0.17979504 -1.408195 1.1272348 4280566900
-0.1797951 -1.4081705 1.1271534 4280566900
-0.17979513 -1.4082133 1.1269979 4280566900
-0.17979522 -1.4083841 1.1263973 4280566900
-0.17979527 -1.408402 1.1262735 4280566900
-0.1797953 -1.4084164 1.1261462 4280566900
-0.17979555 -1.408517 1.1252909 4280566900
-0.17979562 -1.4084499 1.1252518 4280566900
-0.17979567 -1.4084076 1.1251881 4280566900
-0.1797958 -1.4084047 1.1248664 4280566900
-0.17979585 -1.4084191 1.1247392 4280566900
-0.17979589 -1.4084086 1.1246436 4280566900
-0.17979594 -1.4083769 1.1245693 4280566900
-0.179796 -1.4083489 1.1244915 4280566900
-0.17979604 -1.4083242 1.124403 4280566900
-0.17979608 -1.4083387 1.1242828 4280566900
-0.17979607 -1.4084913 1.124018 4280566900
-0.17979613 -1.4084276 1.1239684 4280566900
-0.17979619 -1.4083889 1.1239011 4280566900
-0.1797962 -1.4084493 1.1237351 4280566900
-0.17979625 -1.4084637 1.1236078 4280566900
-0.17979629 -1.4085528 1.1232933 4280566900
-0.17979635 -1.4085069 1.1232332 4280566900
-0.1797964 -1.4085 1.1231341 4280566900
-0.17979641 -1.408564 1.1229575 4280566900
-0.17979646 -1.4085606 1.1228549 4280566900
-0.17979652 -1.4085077 1.1227947 4280566900
-0.17979659 -1.4084406 1.1227558 4280566900
-0.17979665 -1.4083841 1.1227061 4280566900
-0.1797967 -1.4083985 1.1225789 4280566900
-0.17979717 -1.408582 1.1209564 4280566900
-0.17979723 -1.4085644 1.1208609 4280566900
-0.17979726 -1.4085789 1.1207408 4280566900
-0.17979799 -1.4085932 1.1188209 4280566900
-0.17979805 -1.4085686 1.1187396 4280566900
-0.1797981 -1.4085547 1.1186405 4280566900
-0.1797981 -1.4086611 1.1184145 4280566900
-0.17979816 -1.4086118 1.1183578 4280566900
-0.17979822 -1.4085907 1.1182659 4280566900
-0.17979823 -1.4086511 1.1180928 4280566900
-0.17979826 -1.4086903 1.1179338 4280566900
-0.17979831 -1.4086764 1.1178417 4280566900
-0.17979838 -1.4086057 1.1177992 4280566900
-0.17979844 -1.4085493 1.1177496 4280566900
-0.17979845 -1.4086416 1.1175376 4280566900
-0.17979848 -1.4086666 1.1173998 4280566900
-0.17979856 -1.4086208 1.1173326 4280566900
-0.17979862 -1.4085572 1.11729 4280566900
-0.17979862 -1.4086992 1.1170216 4280566900
-0.17979869 -1.4085966 1.1170179 4280566900
-0.17979905 -1.4087226 1.115862 4280566900
-0.17979911 -1.4086733 1.1158053 4280566900
-0.17979951 -1.4087818 1.1145469 4280566900
-0.17979954 -1.4087962 1.1144125 4280566900
-0.17979959 -1.4088211 1.1142747 4280566900
-0.17979962 -1.4088427 1.1141332 4280566900
-0.17979966 -1.408857 1.114006 4280566900
-0.17979971 -1.4088537 1.1138893 4280566900
-0.17979977 -1.4088291 1.113801 4280566900
-0.17979982 -1.4087797 1.1137443 4280566900
-0.17979988 -1.408741 1.11367 4280566900
-0.17979993 -1.4087306 1.1135674 4280566900
-0.17980006 -1.4087242 1.113228 4280566900
-0.17980009 -1.4087704 1.1130619 4280566900
-0.17980011 -1.4088451 1.1128606 4280566900
-0.17980024 -1.4088458 1.112514 4280566900
-0.1798003 -1.408807 1.1124468 4280566900
-0.17980102 -1.408942 1.1103151 4280566900
-0.17980108 -1.4089174 1.1102266 4280566900
-0.17980114 -1.4090064 1.1098981 4280566900
-0.1798012 -1.4089534 1.1098307 4280566900
-0.17980126 -1.408936 1.1097353 4280566900
-0.1798013 -1.4089291 1.1096292 4280566900
-0.17980134 -1.4089293 1.109509 4280566900
-0.17980137 -1.4089863 1.1093323 4280566900
-0.17980142 -1.4089582 1.1092403 4280566900
-0.17980151 -1.4089869 1.1089787 4280566900
-0.1798016 -1.4089768 1.1087489 4280566900
-0.17980161 -1.409055 1.108544 4280566900
-0.17980167 -1.4090127 1.1084732 4280566900
-0.17980184 -1.4089638 1.1081761 4280566900
-0.17980194 -1.4089252 1.1079817 4280566900
-0.17980199 -1.408922 1.107865 4280566900
-0.17980199 -1.4090356 1.1076248 4280566900
