# .PCD v0.7 - Point Cloud Data file format
VERSION 0.7
FIELDS x y z
SIZE 4 4 4
TYPE F F F
COUNT 1 1 1
WIDTH 1358
HEIGHT 1
VIEWPOINT 0 0 0 1 0 0 0
POINTS 1358
DATA ascii
0.013945551 -0.78298026 0.81232589
0.013945553 -0.78287423 0.8123045
0.013945066 -0.78317082 0.80830276
0.013945056 -0.78314269 0.8082037
0.013942967 -0.78475511 0.79111558
0.013942945 -0.78479427 0.79094243
0.013942943 -0.78470594 0.7908963
0.013942971 -0.78444058 0.79103374
0.013942963 -0.78438061 0.79095232
0.013942876 -0.78462565 0.79029864
0.013942884 -0.7844736 0.7903161
0.013942895 -0.78421193 0.79030859
0.013942731 -0.78511882 0.78924942
0.013942708 -0.78515798 0.78907627
0.013942708 -0.78506261 0.78903723
0.013942763 -0.78462017 0.78934407
0.013942773 -0.78446454 0.78937209
0.01394266 -0.78505623 0.78862709
0.013942629 -0.78514498 0.78839743
0.013942616 -0.78512394 0.78828424
0.013942569 -0.78531897 0.78794867
0.013942566 -0.78513527 0.78786355
0.013942567 -0.78503281 0.78783154
0.013942596 -0.78475678 0.78797251
0.013942595 -0.78466141 0.78793347
0.013942499 -0.78514683 0.78729433
0.013942498 -0.78505141 0.78725529
0.013942434 -0.7853421 0.78681737
0.013942393 -0.78508824 0.7863856
0.013942417 -0.78484762 0.78649831
0.01394241 -0.78479475 0.78641695
0.013942316 -0.78525537 0.78579545
0.013942284 -0.78535479 0.78555518
0.013942246 -0.78548253 0.78528672
0.013942238 -0.78544027 0.78519469
0.013942204 -0.78553963 0.7849474
0.013942298 -0.78487402 0.78549784
0.013942285 -0.78485656 0.78538114
0.013942221 -0.78513658 0.78494674
0.013942116 -0.78567159 0.78425109
0.013942118 -0.78556204 0.78422618
0.013942108 -0.78551626 0.78413063
0.013942148 -0.78518713 0.78433871
0.013942131 -0.78518736 0.78419727
0.013942097 -0.7852903 0.78395349
0.013942082 -0.78527284 0.78382266
0.013942068 -0.78526241 0.78369886
0.013942061 -0.78520244 0.78361744
0.013942055 -0.78514248 0.78354311
0.013942008 -0.78522086 0.78317553
0.013941983 -0.78527778 0.78297764
0.013941944 -0.78540903 0.78269857
0.013941924 -0.78542697 0.78253949
0.013941926 -0.78531742 0.78251457
0.01394191 -0.78531414 0.78237665
0.013941885 -0.78536749 0.78218228
0.013941856 -0.78543854 0.78196323
0.013941817 -0.78556985 0.7816841
0.013941782 -0.78568339 0.78142267
0.013941735 -0.78585362 0.78109771
0.013941726 -0.78581846 0.78099865
0.013941709 -0.78581518 0.78086078
0.013941686 -0.78585082 0.78067696
0.01394168 -0.78578728 0.78060615
0.013941679 -0.78569192 0.78056002
0.013941673 -0.78563195 0.78048569
0.013941647 -0.78567821 0.78029132
0.0139416 -0.78586262 0.77995223
0.013941595 -0.78579205 0.77988845
0.013941579 -0.78578871 0.77974349
0.013941567 -0.78575003 0.77964091
0.013941536 -0.78583878 0.77940416
0.013941486 -0.78603029 0.77905798
0.013941502 -0.78584284 0.77911776
0.013941501 -0.78574389 0.77907521
0.013941466 -0.78585392 0.7788173
0.013941417 -0.78604895 0.7784676
0.013941391 -0.78609169 0.77827674
0.013941389 -0.78601044 0.77822357
0.013941391 -0.78589386 0.77819866
0.013941398 -0.78575593 0.77820194
0.013941356 -0.78590143 0.77790165
0.013941325 -0.78598309 0.77767199
0.013941312 -0.78595853 0.77755529
0.013941313 -0.78585607 0.77752328
0.01394133 -0.78565091 0.77759367
0.013941296 -0.78554887 0.77727175
0.013941093 -0.78664356 0.77595478
0.013941098 -0.78651983 0.77594399
0.013941154 -0.78608441 0.77626503
0.013941152 -0.78599262 0.77621537
0.013941104 -0.78618407 0.77586919
0.013941101 -0.7860958 0.77581602
0.013941112 -0.78592956 0.77584755
0.013941115 -0.7858094 0.77583319
0.013941034 -0.78608614 0.7752468
0.013941021 -0.78606158 0.775123
0.013941012 -0.78600514 0.77503806
0.013940888 -0.78643799 0.77414072
0.013940834 -0.78665429 0.77375573
0.013940499 -0.78657418 0.77089888
0.013940355 -0.78710979 0.76987094
0.013940349 -0.78703564 0.76980364
0.01394035 -0.78692609 0.76977164
0.013940093 -0.78729367 0.76772517
0.013939776 -0.7874819 0.76510918
0.013939443 -0.78752893 0.76231617
0.013939418 -0.78757524 0.76211476
0.013939283 -0.78803653 0.76113969
0.013939289 -0.78778553 0.76110744
0.013939142 -0.78790069 0.75990558
0.013938408 -0.788706 0.75399196
0.013938422 -0.78852916 0.75404114
0.011886539 -0.79151034 0.86110461
0.011886539 -0.79147512 0.86103386
0.011886532 -0.79148233 0.86093485
0.011886501 -0.79163474 0.86073363
0.011886516 -0.79151452 0.86071926
0.011886532 -0.79138023 0.86071193
0.011886544 -0.79127771 0.86068702
0.01188656 -0.79115045 0.86067975
0.011886592 -0.79092765 0.86073238
0.011886626 -0.79069066 0.86079913
0.011886658 -0.7904678 0.86085886
0.011886658 -0.79043257 0.86078107
0.011886671 -0.79031944 0.86076671
0.01188668 -0.79023111 0.86072767
0.011886724 -0.78994101 0.86083323
0.011886763 -0.7896722 0.86092472
0.011886769 -0.78960866 0.86086804
0.011886761 -0.78962296 0.860762
0.011886762 -0.78958774 0.86069119
0.011886785 -0.78941447 0.86071569
0.011886797 -0.78930491 0.86069071
0.011886812 -0.78918821 0.86067992
0.011886845 -0.78895479 0.86074317
0.011886866 -0.78879923 0.86074996
0.01188688 -0.78868258 0.86073917
0.011886902 -0.78851634 0.86075658
0.011886909 -0.78844571 0.86070693
0.011886984 -0.78796446 0.86094654
0.011886953 -0.7881133 0.86074883
0.011886963 -0.78802496 0.86070979
0.011886995 -0.78779858 0.86077303
0.011887035 -0.78752977 0.86086446
0.011887055 -0.78737772 0.86087483
0.01188706 -0.78731418 0.86081815
0.011887062 -0.78726476 0.86075443
0.011887076 -0.78715163 0.86074007
0.011887067 -0.78717309 0.860627
0.011887061 -0.78717673 0.86053157
0.011887104 -0.78688312 0.86063355
0.011887124 -0.78673464 0.86064041
0.011887198 -0.78626049 0.86087292
0.011887159 -0.78645885 0.86063993
0.011887157 -0.78643775 0.86056209
0.011887174 -0.78630346 0.86055481
0.011887193 -0.78616554 0.86055809
0.011887237 -0.78586483 0.86066717
0.011887299 -0.785465 0.86084682
0.011887299 -0.78543687 0.86077607
0.011887295 -0.78541934 0.86068761
0.011887298 -0.78537345 0.86062747
0.011887304 -0.78530282 0.86057782
0.011887289 -0.7853632 0.86044008
0.011887301 -0.78525716 0.86041868
0.011887349 -0.78493518 0.86054891
0.011887382 -0.78471237 0.86060864
0.011887402 -0.78455323 0.86061901
0.011887426 -0.78437996 0.86064345
0.011887449 -0.7842173 0.86066437
0.011887468 -0.78406525 0.86067474
0.011887465 -0.78405482 0.86058629
0.011887464 -0.78402662 0.8605085
0.011887495 -0.78380376 0.86056823
0.011887514 -0.78366238 0.86057502
0.011887518 -0.78360945 0.86051482
0.011887524 -0.78353524 0.86046875
0.011887554 -0.78332657 0.86052144
0.011887561 -0.78325593 0.86047179
0.011887583 -0.78309327 0.86049277
0.011887618 -0.78284919 0.86056656
0.011887624 -0.78278565 0.86051697
0.011887625 -0.78274685 0.86044973
0.011887656 -0.78252757 0.86050594
0.011887694 -0.78227288 0.86059034
0.011887725 -0.78205001 0.86065006
0.011887721 -0.78204668 0.86055458
0.011887725 -0.78199375 0.86050147
0.011887711 -0.78203988 0.86037076
0.011887744 -0.78180999 0.86043751
0.011887749 -0.78174996 0.8603844
0.011887779 -0.78153419 0.86043704
0.011887816 -0.78129011 0.86051792
0.011887846 -0.78108144 0.86057061
0.011887873 -0.78088689 0.86060917
0.011887881 -0.78080565 0.86057013
0.011887887 -0.78073853 0.86052406
0.011887891 -0.78067851 0.86047095
0.011887896 -0.78061855 0.86041784
0.011887895 -0.78059036 0.86034
0.011887952 -0.78015548 0.86036396
0.011887964 -0.78005648 0.86034262
0.01188799 -0.77986902 0.86038119
0.011888012 -0.77970284 0.86040562
0.011888043 -0.77949059 0.86046892
0.01188807 -0.77929962 0.860511
0.011888054 -0.77936351 0.86036968
0.011888051 -0.77934593 0.86028838
0.011888103 -0.77900982 0.86043274
0.011888133 -0.77879763 0.86049598
0.01188815 -0.77867031 0.86049581
0.011888175 -0.77848995 0.86053437
0.011888204 -0.77829188 0.86058354
0.011888199 -0.77828848 0.86048806
0.011888186 -0.7783311 0.86036086
0.011888214 -0.77813303 0.86041003
0.011888238 -0.77796334 0.86043799
0.011888242 -0.77790332 0.86038488
0.011888258 -0.777776 0.86038464
0.011888274 -0.77765226 0.86038095
0.011888273 -0.77762413 0.8603031
0.01188828 -0.7775535 0.86026055
0.011888295 -0.77742976 0.86025679
0.011888355 -0.77705109 0.86044353
0.011888389 -0.7768141 0.86052442
0.011888391 -0.77677178 0.86045367
0.011888393 -0.77672946 0.86038995
0.01188843 -0.77648538 0.86047792
0.011888458 -0.77628374 0.86053061
0.011888462 -0.7762273 0.86047393
0.011888468 -0.77616376 0.86043143
0.011888475 -0.77608955 0.8603853
0.011888486 -0.77599061 0.86036396
0.011888505 -0.77584565 0.86037433
0.01188853 -0.77567232 0.8604129
0.011888546 -0.77554858 0.86040914
0.011888561 -0.77542835 0.86040187
0.011888576 -0.77530819 0.8603946
0.011888585 -0.77521986 0.86036265
0.011888594 -0.77513152 0.86033064
0.011888592 -0.77511752 0.86024576
0.011888598 -0.77504689 0.86020327
0.011888639 -0.77477449 0.86031234
0.01188868 -0.77450204 0.86042148
0.01188869 -0.7744137 0.86038953
0.011888711 -0.77425814 0.86041045
0.011888723 -0.77415562 0.86039263
0.011888719 -0.77414519 0.86030424
0.011888722 -0.77409577 0.86024052
0.011888729 -0.77402157 0.86020148
0.011888726 -0.77401114 0.86011308
0.011888728 -0.77396172 0.8600564
0.011888751 -0.77380258 0.8600809
0.011888757 -0.77372843 0.86003482
0.011888753 -0.77372503 0.85994643
0.011888745 -0.7737323 0.85984033
0.011888748 -0.77368641 0.85978019
0.011888756 -0.77360517 0.85974824
0.011888758 -0.77355933 0.85968095
0.011888755 -0.77354532 0.85959607
0.011888765 -0.77345699 0.85956413
0.011888774 -0.77337217 0.85953569
0.011888776 -0.77332985 0.85947198
0.011888792 -0.7732026 0.85947174
0.011888811 -0.77305758 0.85948211
0.011888816 -0.77299404 0.85943252
0.011888812 -0.77298713 0.85934055
0.011888807 -0.77298373 0.85925221
0.011888815 -0.77290249 0.85921317
0.011888832 -0.77277166 0.85921645
0.011888838 -0.7727046 0.85917038
0.011888834 -0.77269769 0.85907847
0.011888847 -0.77259165 0.8590641
0.011888859 -0.77248561 0.8590427
0.011888858 -0.77245742 0.85897201
0.011888865 -0.77238679 0.85892946
0.011888881 -0.77225953 0.85892922
0.011888888 -0.7721889 0.85888666
0.01188888 -0.77219617 0.85878062
0.011888877 -0.7721892 0.85868865
0.011888889 -0.77208674 0.85867083
0.011888892 -0.77203023 0.85861415
0.011888883 -0.77205163 0.85850108
0.011888874 -0.77207309 0.85838795
0.011888871 -0.77205551 0.85830659
0.011888882 -0.77195656 0.85828525
0.011888893 -0.77186114 0.85826033
0.0118889 -0.7717905 0.85821778
0.011888907 -0.77171636 0.85817873
0.01188891 -0.77166343 0.85811853
0.011888921 -0.771568 0.85809362
0.011888924 -0.77151859 0.85803699
0.011888923 -0.77149045 0.85795915
0.011888929 -0.77142686 0.85790956
0.01188892 -0.77144474 0.85780001
0.011888911 -0.77146614 0.85768688
0.011888911 -0.77143091 0.85761613
0.011888913 -0.77138859 0.85755241
0.011888915 -0.77134275 0.85748512
0.011888909 -0.77134645 0.85738969
0.011888911 -0.77129704 0.85732597
0.011888925 -0.77118748 0.85731518
0.011888923 -0.77116638 0.85723734
0.011888907 -0.77122325 0.85708892
0.011888893 -0.77126938 0.85695821
0.011888889 -0.77126604 0.85686278
0.011888874 -0.77131575 0.85672849
0.011888864 -0.77134073 0.85660481
0.011888856 -0.77135152 0.85650229
0.011888845 -0.77138352 0.85637856
0.011888835 -0.77141201 0.85625845
0.011888834 -0.77138388 0.85618061
0.011888828 -0.77138406 0.8560816
0.011888814 -0.77142668 0.85594732
0.011888808 -0.77143395 0.85584837
0.011888803 -0.77142704 0.85574931
0.011888799 -0.77141654 0.85566092
0.011888787 -0.77145213 0.85553372
0.011888762 -0.7715621 0.8553465
0.011888726 -0.77173924 0.85511351
0.011888664 -0.77205807 0.85476047
0.011888638 -0.77217859 0.85456973
0.011888098 -0.77516013 0.8518666
0.011887747 -0.77709001 0.85009861
0.01188766 -0.77756101 0.84963626
0.01188764 -0.77764261 0.84947729
0.011887604 -0.77781272 0.84924424
0.011887563 -0.77801824 0.84898293
0.011887534 -0.77815294 0.84877813
0.011887502 -0.77830178 0.8485592
0.011887467 -0.77847189 0.84832615
0.011887456 -0.77850038 0.84820598
0.011887438 -0.77857137 0.84805053
0.011887411 -0.77858979 0.84762985
0.011887392 -0.77866781 0.8474673
0.011887381 -0.7786963 0.84734011
0.011887357 -0.77879918 0.84715998
0.011887315 -0.77900821 0.84689516
0.011887316 -0.77896941 0.84682083
0.011887341 -0.77878904 0.84685946
0.011887274 -0.77903759 0.84625173
0.011887258 -0.7790944 0.8461104
0.011887231 -0.7792114 0.84590912
0.011887236 -0.77914786 0.84585947
0.011887234 -0.77912682 0.84577459
0.011887211 -0.77922255 0.84559447
0.011887204 -0.77922982 0.84548837
0.011887202 -0.7792052 0.84539998
0.011886856 -0.78017694 0.84159386
0.01188684 -0.78019851 0.8413676
0.011886822 -0.78026599 0.84120864
0.011886802 -0.78034759 0.84103549
0.011886779 -0.78043979 0.84085184
0.01188676 -0.78051436 0.84068578
0.01188674 -0.78058887 0.84051973
0.011886743 -0.78054303 0.84045249
0.01188669 -0.78073478 0.83997905
0.011886675 -0.78078806 0.83982712
0.011886673 -0.78075993 0.83974218
0.011886682 -0.78067511 0.83970672
0.011886656 -0.78078502 0.83951247
0.011886661 -0.78072506 0.83945227
0.011886672 -0.78062612 0.83942378
0.011886626 -0.78084934 0.83913779
0.011886586 -0.78104776 0.83886945
0.01188659 -0.78098422 0.83881277
0.011886592 -0.78094196 0.83874196
0.011886597 -0.78087485 0.83868885
0.011886597 -0.78083962 0.83861095
0.011886592 -0.78083628 0.83850843
0.011886582 -0.78085417 0.83838475
0.011886555 -0.78097469 0.83817989
0.011886527 -0.78109878 0.83797151
0.011886524 -0.78107774 0.83787954
0.011886545 -0.7809186 0.83790404
0.011886551 -0.78085154 0.83785087
0.01188656 -0.78076321 0.83781183
0.011886551 -0.78078109 0.83768809
0.011886551 -0.78074586 0.83761024
0.011886531 -0.78082746 0.83743715
0.011886518 -0.78086662 0.83729935
0.011886501 -0.78092343 0.8371439
0.011886468 -0.78107232 0.83691078
0.011886458 -0.78109378 0.83678353
0.011886464 -0.78102314 0.83673394
0.011886474 -0.78093481 0.83670193
0.011886462 -0.78096688 0.83656412
0.011886451 -0.78098828 0.83643687
0.01188646 -0.78090352 0.8364014
0.011886463 -0.78085411 0.83633059
0.011886445 -0.78091806 0.83616805
0.011886443 -0.78089345 0.83607966
0.011886428 -0.78093964 0.83593476
0.011886403 -0.78104603 0.83573693
0.011886396 -0.78104979 0.83562028
0.011886387 -0.78106415 0.83550006
0.011886367 -0.78114223 0.83532345
0.011886363 -0.78112823 0.83522445
0.011886364 -0.78108597 0.83515364
0.01188636 -0.78107196 0.83505464
0.011886349 -0.78109694 0.83492386
0.011886335 -0.78113961 0.83477545
0.011886316 -0.78121418 0.83460939
0.01188632 -0.78115416 0.83454919
0.011886297 -0.78124642 0.83435839
0.01188625 -0.78147674 0.83405828
0.01188626 -0.78138489 0.83402276
0.011886263 -0.78132838 0.83395904
0.011886236 -0.78144544 0.83375067
0.011886235 -0.78141373 0.83366925
0.01188632 -0.78090054 0.83399016
0.011886198 -0.7815522 0.83332658
0.011886249 -0.78122663 0.83349574
0.01188625 -0.78118438 0.83341789
0.011886199 -0.78143597 0.83309656
0.01188617 -0.78156358 0.83287758
0.011886172 -0.78151774 0.83280325
0.011886175 -0.78146482 0.83273596
0.011886161 -0.78150749 0.83259463
0.011886153 -0.78151476 0.83247447
0.011886168 -0.78139102 0.83247072
0.011886171 -0.78134167 0.8323999
0.011886154 -0.78139853 0.83223736
0.011886139 -0.78144473 0.83209246
0.011886142 -0.78139538 0.83202165
0.011886104 -0.78157258 0.83176035
0.011886097 -0.78157985 0.83164018
0.011886111 -0.78146321 0.83162934
0.011886129 -0.78132176 0.83163619
0.011886217 -0.78079087 0.83197469
0.011886073 -0.78156292 0.83121234
0.011886079 -0.78149229 0.83115566
0.01188609 -0.78139335 0.83112717
0.011886103 -0.78128374 0.83110934
0.011886088 -0.78132999 0.83095735
0.011886074 -0.78137267 0.83080894
0.011886056 -0.78144366 0.83063936
0.011886043 -0.78147221 0.83050507
0.011886046 -0.78141928 0.83043778
0.011886018 -0.78153986 0.83021879
0.011886012 -0.78154355 0.83010924
0.011886005 -0.78154022 0.82999253
0.01188597 -0.78170329 0.82974529
0.011885978 -0.78161854 0.82970273
0.011885988 -0.78153372 0.82966727
0.011886032 -0.78124356 0.82980108
0.011886033 -0.7812013 0.82972324
0.011885955 -0.78160512 0.82927138
0.011885947 -0.78161591 0.82914764
0.011885902 -0.78182852 0.82885814
0.011885834 -0.78217924 0.82845211
0.011885862 -0.78198475 0.8285048
0.011885881 -0.78183621 0.82851869
0.011885869 -0.78186828 0.82838088
0.011885836 -0.78202069 0.82813722
0.011885829 -0.78202087 0.82802409
0.011885843 -0.78190422 0.82801324
0.011885871 -0.78170615 0.82806242
0.011885895 -0.7815364 0.82809746
0.011885891 -0.78152597 0.82799494
0.011885869 -0.78160757 0.82781476
0.011885849 -0.78168571 0.82763106
0.011885837 -0.78171772 0.82749319
0.01188584 -0.78166485 0.82742596
0.0118858 -0.78184915 0.82715756
0.011885796 -0.78183872 0.82705498
0.011885813 -0.78170079 0.82705832
0.011885774 -0.78177238 0.82654226
0.011885777 -0.78171951 0.82647496
0.011885731 -0.78193921 0.82617128
0.011885714 -0.7820031 0.8260017
0.011885699 -0.78204936 0.82584977
0.01188561 -0.78250629 0.82534492
0.011885635 -0.78226256 0.82521373
0.011885649 -0.78214592 0.82519585
0.011885615 -0.78229481 0.8249557
0.011885645 -0.78189945 0.82460147
0.01188566 -0.78177929 0.8245942
0.011885653 -0.78178298 0.82447749
0.011885622 -0.78192127 0.82424086
0.011885568 -0.78218704 0.82389838
0.011885586 -0.78204209 0.82390875
0.011885616 -0.78184044 0.82396847
0.011885596 -0.78191143 0.8237918
0.01188558 -0.78196478 0.82362574
0.011885569 -0.78198624 0.82349145
0.011885569 -0.78194743 0.82341003
0.011885555 -0.78199369 0.8232581
0.011885504 -0.78223819 0.82292974
0.011885485 -0.78230923 0.82275307
0.011885493 -0.78222799 0.82270694
0.0118855 -0.78215027 0.82265735
0.01188546 -0.78226417 0.82221204
0.011885444 -0.78231043 0.82205302
0.011885445 -0.78227162 0.82197165
0.011885465 -0.78211606 0.82198554
0.011885488 -0.7819463 0.82202059
0.011885495 -0.78187215 0.82196742
0.011885534 -0.78150469 0.82182539
0.011885516 -0.78156859 0.82165575
0.011885301 -0.78272671 0.82051575
0.01188532 -0.78258526 0.82052261
0.011885385 -0.7821818 0.82076234
0.011885367 -0.78224218 0.82058918
0.011885358 -0.78225654 0.82046193
0.011885339 -0.7823205 0.82028526
0.011885318 -0.7824021 0.82009804
0.011885318 -0.78236341 0.82000959
0.011885325 -0.78228569 0.81996703
0.011885329 -0.78222924 0.81989622
0.011885309 -0.78230381 0.81971604
0.011885273 -0.78246331 0.81945115
0.011885284 -0.78236085 0.81942624
0.011885316 -0.7821486 0.81949657
0.01188533 -0.78203195 0.81947869
0.011885303 -0.78214192 0.81926322
0.011885264 -0.78231919 0.81898773
0.011885274 -0.78222728 0.8189522
0.011885299 -0.78205049 0.81899434
0.011885287 -0.78207898 0.81884593
0.011885285 -0.78204733 0.81875747
0.011885235 -0.78228831 0.81842554
0.011885246 -0.78218937 0.81839001
0.011885242 -0.78217542 0.81828392
0.01188519 -0.7824235 0.81794494
0.011885167 -0.78251576 0.81774712
0.011885229 -0.78212643 0.81797272
0.011885217 -0.78215849 0.81782782
0.01188513 -0.78256613 0.81722391
0.011885098 -0.7827009 0.81698376
0.01188511 -0.78259844 0.81695175
0.011885123 -0.78248531 0.81693739
0.011885058 -0.78276896 0.81644291
0.011885059 -0.78272319 0.81636149
0.011885072 -0.78261364 0.81633657
0.011885075 -0.78255719 0.81626576
0.011885062 -0.78259277 0.81611735
0.011885083 -0.78243715 0.81613827
0.011885076 -0.7824409 0.81601453
0.01188507 -0.78243053 0.81589788
0.011884957 -0.78294104 0.8150785
0.011885003 -0.7826438 0.8152265
0.01188501 -0.78256965 0.81517333
0.011885004 -0.78255922 0.81505662
0.011885008 -0.78250277 0.8149929
0.011884991 -0.78255612 0.81481975
0.011884738 -0.78313059 0.81172711
0.011884737 -0.78309184 0.81163865
0.011884782 -0.78280878 0.81177962
0.011884311 -0.7836256 0.80550897
0.011883573 -0.78446436 0.7946704
0.011883381 -0.78448755 0.79142129
0.011883402 -0.7843284 0.79144579
0.011883223 -0.7849043 0.78963655
0.011883275 -0.78458929 0.78982341
0.011883207 -0.78482378 0.78917325
0.011883295 -0.78426462 0.7894693
0.011883311 -0.78414088 0.78945845
0.011883086 -0.7852993 0.78814173
0.011883139 -0.78497016 0.78833562
0.011883185 -0.78467995 0.78849775
0.011883189 -0.78461999 0.78842336
0.011883166 -0.78470165 0.7882008
0.011883182 -0.7845673 0.78820056
0.011883197 -0.78444713 0.78818619
0.011883191 -0.78443676 0.78805536
0.011883015 -0.78528726 0.78691131
0.01188302 -0.78521311 0.78684402
0.011883015 -0.78520268 0.78672028
0.011882996 -0.7852596 0.78652239
0.011882985 -0.78527403 0.78636682
0.01188296 -0.78536636 0.78613365
0.011882935 -0.78545868 0.78590041
0.011882931 -0.78538829 0.78569525
0.011882916 -0.78516686 0.78494889
0.011882814 -0.78562778 0.78419304
0.011882818 -0.78555715 0.78412223
0.011882804 -0.78558928 0.78394902
0.01188279 -0.78557557 0.78368741
0.011882795 -0.785505 0.78361654
0.011882824 -0.78531045 0.78367633
0.011882829 -0.7852363 0.78361613
0.011882681 -0.78593451 0.7826097
0.011882672 -0.78593832 0.78245765
0.01188269 -0.78580397 0.78245741
0.011882652 -0.78591776 0.78206164
0.011882641 -0.78593218 0.78190607
0.011882723 -0.78545076 0.7822659
0.011882724 -0.78540492 0.78217036
0.011882735 -0.78530246 0.78213835
0.011882794 -0.78494853 0.7823711
0.011882577 -0.78605026 0.78106838
0.011882594 -0.78591591 0.78106815
0.011882599 -0.78584534 0.78100437
0.011882634 -0.7856189 0.78109592
0.011882656 -0.78545976 0.78112745
0.011882652 -0.78544229 0.78100371
0.01188265 -0.78540713 0.78089756
0.011882635 -0.78543925 0.78071731
0.011882617 -0.7854926 0.78052294
0.011882582 -0.785631 0.78022975
0.011882471 -0.78617316 0.77951294
0.011882505 -0.78594673 0.77961159
0.011882576 -0.78552902 0.77990782
0.011882573 -0.78550088 0.77980173
0.011882522 -0.78572786 0.77941316
0.011882543 -0.78557581 0.77943063
0.011882477 -0.78587711 0.77896798
0.011882496 -0.78573215 0.77897835
0.011882512 -0.78560483 0.77897102
0.011882514 -0.78555197 0.77888256
0.011882453 -0.78582495 0.7784552
0.0118824 -0.78606248 0.77805609
0.011882413 -0.78594941 0.77802765
0.011882397 -0.78598863 0.77784741
0.011882341 -0.78623682 0.77743769
0.011882326 -0.78627598 0.77725041
0.0118823 -0.78636128 0.77701008
0.011882348 -0.78606755 0.77718288
0.011882354 -0.7859934 0.77711552
0.011882336 -0.78604323 0.77691764
0.011882331 -0.78602576 0.77679384
0.011882319 -0.7860437 0.77662772
0.011882245 -0.78639108 0.77611214
0.01188226 -0.78627092 0.77609777
0.011882254 -0.78625697 0.77597046
0.011882252 -0.78621829 0.77586079
0.011882347 -0.7856766 0.7763018
0.011882334 -0.78565586 0.7760331
0.011882202 -0.78617042 0.77489907
0.011881999 -0.78678924 0.77276462
0.011882043 -0.78651321 0.77291977
0.011881859 -0.78698003 0.77078861
0.011881761 -0.78663063 0.76834142
0.011881578 -0.78749543 0.76709133
0.011881441 -0.78742898 0.76459509
0.011881078 -0.78824621 0.76016647
0.011881066 -0.78826064 0.75998974
0.01188089 -0.78758597 0.75547367
0.011880905 -0.7874552 0.75546288
0.011880449 -0.78922266 0.75152022
0.011880164 -0.7893824 0.74697733
0.0099001275 -0.79202867 0.8607409
0.0099001192 -0.79208195 0.86061019
0.0099002561 -0.79130709 0.86094475
0.0099002393 -0.79140633 0.86078233
0.0099002915 -0.79111272 0.86088431
0.0099003036 -0.79104918 0.86083472
0.0099003157 -0.79098207 0.86078155
0.0099003259 -0.79092562 0.86072493
0.0099003464 -0.79081607 0.86069995
0.0099003771 -0.7906428 0.86072445
0.0099004358 -0.79031372 0.86085469
0.0099004563 -0.79019707 0.8608368
0.0099004842 -0.79004151 0.86085069
0.0099005066 -0.78992134 0.86083639
0.0099005047 -0.78993565 0.86073029
0.0099004991 -0.78997123 0.86061019
0.0099005438 -0.78971654 0.86068749
0.0099005876 -0.78947246 0.86076134
0.0099005587 -0.789639 0.86054593
0.0099005625 -0.78962499 0.86046106
0.0099006034 -0.78939152 0.86052436
0.0099006724 -0.7890023 0.86070049
0.009900691 -0.78889984 0.86067551
0.0099006947 -0.78888232 0.86058712
0.009900731 -0.78868073 0.86063272
0.0099007739 -0.78844017 0.86070305
0.0099007925 -0.78833771 0.86067814
0.0099008186 -0.78818917 0.86068493
0.0099008419 -0.78806192 0.86067766
0.0099008502 -0.78801608 0.86061043
0.0099008614 -0.78795606 0.86055726
0.0099008773 -0.78786772 0.86052531
0.0099009359 -0.78753871 0.86065555
0.009900989 -0.787238 0.86076468
0.0099009946 -0.78720981 0.86068684
0.009901016 -0.78709316 0.86067605
0.0099010784 -0.78673935 0.86082393
0.0099010952 -0.7866475 0.8607884
0.0099010924 -0.7866689 0.86067533
0.0099010998 -0.78663015 0.8606081
0.0099011268 -0.7864781 0.86061841
0.0099011455 -0.78637558 0.8605935
0.0099011585 -0.78630853 0.86054039
0.009901179 -0.78619188 0.86052954
0.0099012051 -0.78604686 0.86053288
0.0099012516 -0.78578514 0.86061728
0.0099012675 -0.7856968 0.86058533
0.0099012787 -0.7856403 0.86052865
0.0099013438 -0.78526878 0.86068714
0.0099013569 -0.78520173 0.86064106
0.0099013792 -0.78507799 0.86063021
0.0099014072 -0.78491884 0.86064762
0.0099014156 -0.78487659 0.86057681
0.0099014034 -0.78495103 0.86043203
0.0099014295 -0.78480607 0.86043531
0.0099014845 -0.78449476 0.86055499
0.0099015059 -0.78437459 0.86054772
0.0099015236 -0.78427559 0.86051929
0.0099015394 -0.78419083 0.86048377
0.0099015534 -0.78411669 0.86043769
0.0099015692 -0.78402829 0.86040574
0.009901627 -0.78370285 0.86053246
0.0099016502 -0.78357559 0.86052513
0.009901654 -0.78355801 0.86044383
0.0099016884 -0.78336 0.86048591
0.0099017052 -0.78326809 0.86045748
0.0099017089 -0.78325057 0.86037612
0.0099017732 -0.78288966 0.86053109
0.0099017825 -0.78284025 0.86046731
0.0099018058 -0.782713 0.86046004
0.0099018617 -0.7823981 0.86059034
0.0099018961 -0.78220004 0.86063242
0.0099019129 -0.78210819 0.8605969
0.0099019455 -0.78192782 0.86062849
0.0099019874 -0.78169435 0.86069876
0.0099019939 -0.78165913 0.86062801
0.0099020172 -0.78153187 0.86062777
0.0099020377 -0.78141522 0.86060989
0.0099020451 -0.78138 0.86053914
0.0099020535 -0.7813341 0.86047894
0.0099020684 -0.78124928 0.86044347
0.0099020787 -0.78119642 0.86038327
0.0099021485 -0.78080368 0.86056292
0.009902155 -0.78076839 0.86049217
0.0099021625 -0.78072965 0.86042488
0.0099021671 -0.78070855 0.86034709
0.0099021606 -0.78074765 0.86022341
0.0099021913 -0.7805779 0.86024433
0.0099022659 -0.78015327 0.86045575
0.0099022826 -0.78006142 0.86042732
0.0099023245 -0.77982438 0.86050117
0.0099023562 -0.77965111 0.8605327
0.0099023739 -0.77955216 0.8605113
0.0099024 -0.77940714 0.86052167
0.0099024335 -0.77921617 0.86056376
0.0099024447 -0.77915972 0.86050713
0.0099024503 -0.77913153 0.86043638
0.0099024614 -0.77907151 0.86038321
0.0099024829 -0.77895135 0.86037594
0.0099025015 -0.77884531 0.86035454
0.0099025089 -0.77881008 0.86028379
0.0099025303 -0.77868986 0.86027652
0.0099025685 -0.77847761 0.86033982
0.0099026011 -0.77829373 0.86037481
0.0099026179 -0.77820188 0.86034638
0.0099026347 -0.77810645 0.86032152
0.0099026449 -0.77805346 0.86026835
0.009902657 -0.77798641 0.86021525
0.0099026719 -0.77790868 0.86017972
0.0099026971 -0.77776724 0.86018658
0.009902738 -0.77753377 0.860264
0.0099027772 -0.777318 0.86033076
0.0099028032 -0.77717304 0.86034113
0.00990282 -0.77708113 0.8603127
0.0099028395 -0.77697158 0.86029482
0.0099028768 -0.77676284 0.8603546
0.009902901 -0.77662849 0.86036146
0.0099028992 -0.77663928 0.86025184
0.0099029243 -0.77650142 0.86026222
0.0099029541 -0.77633166 0.86029023
0.0099029783 -0.77620083 0.86029357
0.0099029988 -0.77608418 0.86028272
0.0099030137 -0.77600288 0.86025077
0.0099030333 -0.77589685 0.86022937
0.0099030612 -0.7757377 0.86025387
0.0099030891 -0.77558213 0.86027479
0.0099031115 -0.7754584 0.8602711
0.0099031478 -0.77525681 0.86032379
0.0099031813 -0.77506578 0.86037296
0.0099032018 -0.77495265 0.8603586
0.0099032279 -0.77481121 0.86037254
0.009903267 -0.77458835 0.86044639
0.0099032931 -0.77444339 0.86045676
0.0099032884 -0.77447188 0.8603366
0.0099032847 -0.77449679 0.86021996
0.0099033257 -0.77427042 0.86029738
0.0099034011 -0.77384222 0.86052644
0.0099033955 -0.77387422 0.86040276
0.0099033769 -0.77398413 0.86022264
0.0099033657 -0.77405161 0.8600778
0.0099033713 -0.77402699 0.85999644
0.0099033881 -0.77393156 0.85997152
0.0099033965 -0.77388924 0.85990781
0.0099034086 -0.77382565 0.85985821
0.0099034328 -0.77368778 0.85986859
0.0099034533 -0.77357465 0.85985428
0.0099034561 -0.77356422 0.85976583
0.0099034505 -0.77359623 0.85964215
0.0099034617 -0.77353621 0.85959607
0.0099034933 -0.77335936 0.85963112
0.009903511 -0.77326393 0.85960627
0.0099035231 -0.77319688 0.85956013
0.0099035306 -0.77315807 0.8594929
0.0099035315 -0.77315825 0.85939389
0.0099035371 -0.77312654 0.85932672
0.009903552 -0.77304882 0.85928416
0.0099035706 -0.77294278 0.8592698
0.00990358 -0.77289689 0.85920966
0.0099035874 -0.77285463 0.85914594
0.0099036098 -0.7727344 0.85913867
0.009903633 -0.77260005 0.85914552
0.0099036498 -0.77251172 0.85911351
0.009903661 -0.77244812 0.85906392
0.0099036703 -0.77240229 0.85900372
0.0099036684 -0.77241659 0.85889769
0.0099036638 -0.77244508 0.85877752
0.0099036749 -0.77238506 0.85872442
0.0099036871 -0.77231801 0.85867834
0.0099036936 -0.7722863 0.85860407
0.0099037075 -0.77221209 0.85856503
0.0099037308 -0.77208132 0.85856831
0.009903755 -0.77194339 0.85857868
0.0099037755 -0.77183026 0.85856438
0.0099037886 -0.77176321 0.8585183
0.0099037997 -0.77169961 0.8584758
0.0099038044 -0.77167851 0.85839087
0.0099038025 -0.77169287 0.85828483
0.0099037969 -0.7717284 0.85815763
0.0099037997 -0.77171445 0.85807276
0.0099038109 -0.77165443 0.85801959
0.0099038118 -0.77165461 0.85792059
0.0099038184 -0.77161932 0.85784984
0.0099038435 -0.77147788 0.85786372
0.0099038677 -0.77134353 0.85787058
0.0099038789 -0.77128351 0.85781747
0.0099038826 -0.7712695 0.85773259
0.0099038621 -0.7713865 0.85754544
0.0099038417 -0.7715106 0.85735118
0.0099038566 -0.77142578 0.85731566
0.009903877 -0.77131265 0.85730839
0.0099038817 -0.77129161 0.85722351
0.0099038733 -0.77134132 0.85708922
0.0099038631 -0.77140522 0.85694087
0.0099038491 -0.77149034 0.85677838
0.0099038491 -0.77149403 0.85667586
0.0099038715 -0.77136678 0.85667562
0.0099038845 -0.77129614 0.85663307
0.0099038808 -0.77132106 0.85651648
0.0099038826 -0.77131414 0.85642451
0.0099038826 -0.77132142 0.85631847
0.0099038789 -0.77134633 0.85620183
0.0099038789 -0.77135003 0.85609931
0.0099038742 -0.77137852 0.85597914
0.0099038677 -0.77142119 0.85584486
0.0099038705 -0.77140719 0.85575998
0.009903877 -0.77137548 0.85568571
0.0099038808 -0.77135795 0.85559726
0.0099038705 -0.77141833 0.85545242
0.0099038482 -0.77154946 0.85525113
0.0099038333 -0.77164167 0.85508156
0.0099038165 -0.77174097 0.85490495
0.0099036451 -0.77272534 0.85402977
0.0099030137 -0.776362 0.8506453
0.0099029439 -0.77676576 0.85023588
0.0099028386 -0.77737129 0.84967476
0.0099027995 -0.77759445 0.8494029
0.0099027744 -0.77774686 0.8491804
0.0099027557 -0.77785325 0.84899676
0.0099027157 -0.77808708 0.84871429
0.0099026887 -0.77824658 0.84849179
0.0099027101 -0.77812988 0.848481
0.0099025229 -0.7792213 0.84702623
0.0099025434 -0.77911168 0.84700835
0.0099025462 -0.77909774 0.84691638
0.009902549 -0.77908731 0.84682095
0.0099025564 -0.7790485 0.84674662
0.0099026235 -0.77867377 0.84673184
0.0099025145 -0.77930784 0.84603637
0.0099025443 -0.7791416 0.84606087
0.0099025536 -0.77909219 0.84599715
0.0099025629 -0.77904284 0.84593344
0.009902576 -0.77896863 0.84588736
0.0099025741 -0.778983 0.84577423
0.0099025723 -0.77900082 0.84565759
0.0099025834 -0.77894086 0.84559739
0.0099025695 -0.77902246 0.84543133
0.0099025741 -0.77900136 0.84534645
0.0099025378 -0.77921396 0.84507102
0.0099025266 -0.77928138 0.84491915
0.0099024633 -0.77967227 0.84377426
0.0099024726 -0.77962285 0.84371054
0.0099024856 -0.77955222 0.84366095
0.0099022957 -0.78072405 0.84061527
0.0099023171 -0.78060389 0.840608
0.0099023404 -0.78047305 0.84060425
0.0099023338 -0.78051925 0.84045935
0.0099023366 -0.7805053 0.84036744
0.009902345 -0.78045946 0.84030014
0.0099023599 -0.78038174 0.84025055
0.0099022873 -0.78080338 0.83969617
0.0099022724 -0.78089559 0.83951956
0.0099022482 -0.78103387 0.83929706
0.0099022491 -0.78103405 0.83919096
0.0099022668 -0.78093511 0.83916253
0.0099022761 -0.7808857 0.83909881
0.0099022947 -0.78078675 0.83907038
0.0099023459 -0.78049666 0.83920419
0.0099023487 -0.78048623 0.83910167
0.0099023376 -0.78055012 0.83894622
0.0099023357 -0.78056443 0.838826
0.0099023273 -0.78062129 0.83867055
0.0099022798 -0.78089762 0.83833867
0.0099022649 -0.78099 0.83804893
0.0099022491 -0.78108227 0.83786523
0.0099022584 -0.78103644 0.837798
0.0099022835 -0.78089499 0.83780479
0.0099023031 -0.78078896 0.8377834
0.0099023143 -0.78072542 0.83772671
0.009902291 -0.78086364 0.83750421
0.0099023059 -0.7807824 0.83746523
0.0099022975 -0.78083569 0.83731329
0.0099022863 -0.78090316 0.83714724
0.0099022929 -0.78087145 0.83706582
0.0099023087 -0.78078312 0.83703387
0.0099022938 -0.78087181 0.83685374
0.009902278 -0.78096759 0.83666646
0.0099022724 -0.78100318 0.83652514
0.0099022612 -0.78107065 0.83635908
0.0099022537 -0.78112042 0.83621067
0.0099022826 -0.7809577 0.83623868
0.0099022891 -0.78092247 0.83615375
0.0099022752 -0.78100765 0.83597714
0.0099022659 -0.78106803 0.83581811
0.0099022677 -0.78106111 0.83571202
0.0099022659 -0.78107548 0.83559185
0.0099022724 -0.78104377 0.83551049
0.0099022724 -0.78104752 0.83539385
0.0099022575 -0.78113621 0.83521366
0.009902251 -0.78117889 0.83506525
0.0099022649 -0.78110117 0.83502269
0.009902277 -0.78103763 0.834966
0.0099022873 -0.78098118 0.83490229
0.0099022835 -0.78100616 0.83477151
0.009902278 -0.78104174 0.83463013
0.0099022621 -0.78113753 0.83444291
0.0099022267 -0.78134304 0.83416045
0.0099022444 -0.78124762 0.83412844
0.0099022631 -0.78114516 0.83410352
0.0099022742 -0.78108513 0.83404332
0.009902277 -0.7810747 0.83394074
0.00990225 -0.78123069 0.8337006
0.0099022277 -0.78136539 0.83347458
0.0099022472 -0.78125942 0.83345318
0.0099022435 -0.78128433 0.83332241
0.0099022249 -0.7813943 0.83312106
0.0099022212 -0.78141928 0.83299029
0.0099022137 -0.78146905 0.83283478
0.00990221 -0.78149045 0.83270758
0.0099022267 -0.78140211 0.83266854
0.0099022444 -0.78130317 0.83264714
0.0099022547 -0.78124672 0.83258343
0.0099022482 -0.7812894 0.83243501
0.0099022416 -0.78133208 0.83228654
0.0099022649 -0.78120482 0.83227926
0.0099022696 -0.7811802 0.83219087
0.0099022724 -0.78116977 0.83208829
0.0099022491 -0.78130448 0.83186227
0.0099022314 -0.78141445 0.83166093
0.0099022463 -0.78132963 0.83161837
0.0099022528 -0.78129798 0.83153695
0.0099022854 -0.78111404 0.83157909
0.0099022305 -0.78143287 0.8311978
0.0099022202 -0.78149682 0.83102822
0.0099022239 -0.7814793 0.83093268
0.0099022426 -0.78137678 0.83090776
0.0099022426 -0.78138405 0.83079463
0.009902142 -0.78197235 0.82995421
0.0099021476 -0.78194422 0.82986927
0.0099021783 -0.78177452 0.82989728
0.00990221 -0.7815941 0.82993585
0.009902223 -0.78152347 0.82988626
0.0099022416 -0.78142101 0.82986134
0.0099022314 -0.78149235 0.82946545
0.0099022584 -0.7813403 0.82948291
0.0099022491 -0.78140068 0.82932389
0.0099022156 -0.78159916 0.82904136
0.009902196 -0.78171265 0.8288365
0.0099022016 -0.78168452 0.82874453
0.0099022165 -0.78160679 0.82870197
0.0099022388 -0.78148305 0.82869118
0.0099022062 -0.78172648 0.82690966
0.009902101 -0.78234667 0.8260445
0.009902115 -0.78226894 0.82599491
0.0099021634 -0.78199655 0.82611108
0.0099022314 -0.78160727 0.82632965
0.0099022333 -0.78161508 0.82587004
0.0099022407 -0.78157634 0.82578868
0.0099022249 -0.78167212 0.82559437
0.0099021709 -0.78198743 0.8252095
0.0099021597 -0.78205842 0.82503289
0.0099021951 -0.78185683 0.82509261
0.0099022463 -0.78156668 0.82522649
0.0099022379 -0.78161997 0.82506746
0.0099022398 -0.78161311 0.82495433
0.009902169 -0.78202403 0.82448834
0.009902156 -0.78210211 0.82430464
0.0099021662 -0.78204918 0.82423735
0.0099021839 -0.78195375 0.8242054
0.0099022044 -0.78184068 0.82418394
0.0099022044 -0.78184438 0.82406729
0.0099021662 -0.78207141 0.82364345
0.0099021727 -0.78203619 0.82355851
0.0099021755 -0.78202575 0.8234489
0.0099020833 -0.78256059 0.82286644
0.0099022808 -0.78143132 0.82373071
0.0099022603 -0.78155541 0.8235082
0.009902169 -0.78208691 0.82281613
0.009902155 -0.78217208 0.82262534
0.0099021522 -0.78219002 0.82249457
0.0099021615 -0.78214061 0.82242376
0.0099021904 -0.78198147 0.82244825
0.0099022314 -0.781748 0.82253271
0.0099022361 -0.78172696 0.82243371
0.0099021588 -0.78219157 0.82156122
0.0099021737 -0.78211033 0.82151508
0.009902155 -0.78222775 0.82106626
0.0099021634 -0.78218549 0.82098138
0.0099021504 -0.78226358 0.82079762
0.0099021504 -0.78227085 0.82067037
0.0099021615 -0.78220731 0.82061368
0.0099021848 -0.78208005 0.82060641
0.0099021858 -0.78208023 0.82048619
0.0099021904 -0.78205919 0.82038718
0.0099021886 -0.78207356 0.82025993
0.0099021494 -0.78230035 0.81994212
0.0099021187 -0.78248471 0.81965959
0.0099021317 -0.78241408 0.81960285
0.009902169 -0.78220534 0.81966972
0.0099021839 -0.78212059 0.81962711
0.0099021858 -0.78211725 0.81951046
0.0099021625 -0.78225553 0.81927383
0.0099021522 -0.78231949 0.8190971
0.0099021606 -0.78227365 0.81901574
0.0099021476 -0.78235173 0.81883204
0.0099021308 -0.78245461 0.8186236
0.0099021466 -0.78236985 0.81858104
0.0099021615 -0.78228855 0.81853491
0.009902128 -0.78248358 0.81823474
0.0099020973 -0.7826643 0.81795573
0.0099021103 -0.78259373 0.81789905
0.0099021886 -0.78214777 0.81818116
0.0099021625 -0.78230375 0.81792682
0.0099021774 -0.78222251 0.81787366
0.0099021923 -0.78214127 0.81782758
0.0099020721 -0.78283548 0.81708628
0.0099020945 -0.78271532 0.81707901
0.0099022137 -0.78203958 0.81732184
0.0099022323 -0.78193712 0.81729692
0.0099021876 -0.78220308 0.81682003
0.0099021439 -0.78246176 0.81646341
0.009902115 -0.78263193 0.81618792
0.0099021429 -0.78249484 0.81571037
0.0099021513 -0.78245258 0.81563252
0.0099020526 -0.78308946 0.81322592
0.009902128 -0.78270203 0.81235552
0.0099021513 -0.78257477 0.81235528
0.0099021466 -0.78260326 0.81220686
0.0099020135 -0.78343463 0.8098253
0.0099020107 -0.78345609 0.80968392
0.0099020097 -0.78405589 0.79359823
0.0099019036 -0.78470206 0.79200125
0.0099019082 -0.78468454 0.79188454
0.009901911 -0.78467417 0.79176074
0.0099018756 -0.78494632 0.78971767
0.0099019278 -0.78473067 0.78761017
0.0099019138 -0.78481591 0.78738403
0.0099017695 -0.78577399 0.78318185
0.0099017667 -0.78579903 0.78301573
0.0099017937 -0.78564698 0.78304023
0.0099018384 -0.78539222 0.78316706
0.0099018766 -0.78519106 0.78295106
0.0099018887 -0.78512752 0.78288025
0.009901925 -0.78492236 0.78295064
0.0099017415 -0.78598511 0.78169376
0.0099017406 -0.78599954 0.78153825
0.0099018449 -0.78539765 0.7820251
0.0099017983 -0.78568524 0.78130078
0.0099017862 -0.78576344 0.7810747
0.0099017564 -0.78594077 0.78074968
0.0099017108 -0.78621018 0.7803188
0.0099017099 -0.78621751 0.78017032
0.0099017238 -0.78614688 0.78009951
0.0099018998 -0.78513062 0.78103471
0.0099019269 -0.78498209 0.7810486
0.0099019399 -0.78491151 0.78098488
0.0099017639 -0.78593534 0.77975976
0.0099017937 -0.7857691 0.7797842
0.0099018198 -0.78562415 0.77980167
0.0099017825 -0.78584397 0.7794202
0.0099017266 -0.78617364 0.77892929
0.0099017229 -0.78619862 0.77876318
0.0099017527 -0.78603244 0.77879471
0.0099017778 -0.785891 0.77880156
0.0099018011 -0.78576374 0.77879423
0.0099018039 -0.78575337 0.7786634
0.0099017741 -0.78593069 0.7783314
0.0099017574 -0.78603363 0.77807343
0.0099017667 -0.78598428 0.77798146
0.0099017816 -0.7859031 0.77792829
0.0099017927 -0.78584665 0.77784336
0.0099018598 -0.78546083 0.77810782
0.0099016735 -0.78654492 0.77680153
0.0099016782 -0.78652388 0.7766813
0.0099017546 -0.78608847 0.77700227
0.0099017108 -0.78634727 0.776582
0.0099016912 -0.78646439 0.776317
0.0099017108 -0.78635836 0.77628148
0.0099017266 -0.78627008 0.77622831
0.0099017331 -0.78624201 0.77611512
0.0099017397 -0.78620684 0.77600896
0.0099017406 -0.7862106 0.77585697
0.0099017322 -0.78626043 0.77565908
0.0099016959 -0.78647673 0.77528113
0.0099016791 -0.78657973 0.77503026
0.0099016698 -0.78664017 0.77481472
0.0099016679 -0.78665811 0.77465564
0.0099018412 -0.78567064 0.77527976
0.0099018449 -0.78565675 0.77514541
0.0099015785 -0.78742355 0.76730657
0.009901613 -0.78726947 0.76642239
0.0099016353 -0.78714222 0.76641512
0.0099015441 -0.78774768 0.76377153
0.0099014668 -0.78836066 0.75878394
0.0099013653 -0.78925955 0.74986178
0.009901478 -0.78884488 0.74416882
0.009901477 -0.78885227 0.74399209
0.0079332432 -0.79196888 0.86079448
0.0079332814 -0.79162216 0.86093533
0.0079332683 -0.79167539 0.86079752
0.0079333298 -0.79109877 0.86099803
0.0079333074 -0.79123342 0.86081445
0.0079333158 -0.79112035 0.86079299
0.007933354 -0.79077005 0.86093736
0.0079333484 -0.79077023 0.86083841
0.0079333456 -0.79074919 0.86076057
0.0079333354 -0.79078472 0.86064041
0.0079333438 -0.79067516 0.86061549
0.0079334034 -0.79015499 0.86087978
0.0079334062 -0.79008788 0.86082661
0.0079334192 -0.78994292 0.86082989
0.0079334285 -0.78982276 0.86081558
0.0079334294 -0.78976625 0.8607589
0.0079334313 -0.78970981 0.86070222
0.0079334332 -0.78964978 0.86064911
0.0079334332 -0.78960043 0.86058539
0.0079334471 -0.7894519 0.86059219
0.0079334788 -0.78915119 0.86070126
0.0079335151 -0.7888186 0.86083508
0.0079335272 -0.78867722 0.86083478
0.0079335291 -0.78862071 0.86077815
0.0079335365 -0.78851473 0.86075675
0.0079335347 -0.78848654 0.86067891
0.0079335319 -0.7884655 0.86060113
0.0079335384 -0.78837007 0.86056912
0.0079335524 -0.78820741 0.86058295
0.0079335691 -0.78803414 0.86060745
0.0079335729 -0.78796351 0.86056489
0.0079335794 -0.78786099 0.86053997
0.0079336595 -0.78718507 0.86090297
0.0079336492 -0.78722417 0.86078638
0.0079336623 -0.78707212 0.86079669
0.0079336818 -0.78687054 0.86083525
0.007933679 -0.78685302 0.86075389
0.0079336632 -0.78693461 0.86060202
0.0079336707 -0.78682858 0.86058062
0.0079336893 -0.7866376 0.86061561
0.0079337154 -0.78638643 0.86068946
0.00793372 -0.78630161 0.86065394
0.0079337209 -0.78625226 0.86059022
0.0079337191 -0.78622055 0.86051595
0.0079337265 -0.78611451 0.86049455
0.0079337396 -0.78596604 0.86050135
0.0079337638 -0.78573257 0.86057168
0.0079337833 -0.78553098 0.86061019
0.0079337768 -0.7855382 0.86051124
0.0079337861 -0.78542155 0.86049336
0.0079338029 -0.78524119 0.86052483
0.0079338141 -0.78511393 0.86051756
0.0079338336 -0.78491586 0.86055964
0.0079338355 -0.78485584 0.86050653
0.0079338243 -0.78489494 0.86038285
0.0079338541 -0.78461546 0.8604849
0.0079338942 -0.78425813 0.86063629
0.0079338988 -0.78417689 0.86059731
0.0079338988 -0.78413105 0.86053002
0.0079339072 -0.78401792 0.86051571
0.0079339128 -0.78392959 0.86048371
0.0079339119 -0.78389788 0.86040944
0.0079339109 -0.78385204 0.86034214
0.007933924 -0.78370708 0.86035252
0.0079339398 -0.78353733 0.86037344
0.0079339519 -0.7833994 0.86037678
0.0079339705 -0.78320843 0.86041176
0.007933991 -0.78300333 0.86046094
0.0079340022 -0.7828725 0.86045718
0.0079340041 -0.78281248 0.86040401
0.0079340162 -0.78267109 0.86040378
0.0079340348 -0.78248364 0.86044234
0.0079340357 -0.78242713 0.86038572
0.007934045 -0.782314 0.86037135
0.0079340655 -0.78210181 0.86042047
0.0079340814 -0.78193563 0.86044496
0.0079340916 -0.78181189 0.86043411
0.0079341019 -0.78168458 0.86042684
0.0079341196 -0.7815007 0.86046189
0.0079341354 -0.78133804 0.86048281
0.007934127 -0.78135592 0.86037326
0.0079341242 -0.78133482 0.86029541
0.0079341447 -0.78112614 0.86034811
0.007934168 -0.78090328 0.86040783
0.0079341717 -0.78082556 0.86036527
0.007934181 -0.78070891 0.86035442
0.0079341903 -0.78059584 0.86034012
0.0079342015 -0.78046143 0.86033988
0.0079342024 -0.78040856 0.86027968
0.0079342043 -0.78035206 0.86022305
0.0079342257 -0.78013986 0.8602792
0.0079342714 -0.77973998 0.86048007
0.0079342769 -0.77965164 0.86044812
0.0079342853 -0.77954561 0.86042672
0.0079343086 -0.77931923 0.86049706
0.0079343189 -0.779199 0.86048973
0.0079343226 -0.77912486 0.86045074
0.0079343366 -0.77897632 0.86046463
0.0079343552 -0.77878535 0.86050671
0.0079343403 -0.77885628 0.86035836
0.0079343542 -0.77870071 0.86037928
0.0079343654 -0.77857345 0.86037201
0.0079343636 -0.77853817 0.86030126
0.0079343701 -0.77844989 0.86026925
0.0079343822 -0.77831197 0.86027962
0.0079343906 -0.77820241 0.86026174
0.0079344064 -0.77803266 0.86028975
0.0079344343 -0.77777439 0.86038476
0.0079344492 -0.77761877 0.86040574
0.007934452 -0.77755171 0.86035967
0.0079344595 -0.77745271 0.86033827
0.0079344623 -0.77737856 0.8602922
0.0079344707 -0.77727604 0.86027431
0.0079344846 -0.77712047 0.86029524
0.0079345116 -0.77687281 0.8603797
0.007934534 -0.77665353 0.86045003
0.007934534 -0.77661121 0.86038631
0.0079345284 -0.77661133 0.86028731
0.0079345405 -0.77647346 0.86029065
0.0079345582 -0.77628952 0.86033273
0.0079345545 -0.77627909 0.86024433
0.007934561 -0.77618366 0.86021942
0.0079345778 -0.77600682 0.86025447
0.007934601 -0.77578747 0.8603248
0.0079346234 -0.77556819 0.86039513
0.0079346355 -0.77543026 0.86039847
0.0079346355 -0.775388 0.86033475
0.0079346579 -0.77517217 0.86040151
0.007934683 -0.77493519 0.86048245
0.0079346877 -0.77486098 0.86044341
0.0079346849 -0.77483284 0.86036557
0.0079346821 -0.77481174 0.86028779
0.0079346998 -0.77462786 0.86032283
0.0079347184 -0.77444744 0.86036849
0.0079347361 -0.77426356 0.86041057
0.0079347435 -0.77416813 0.86038566
0.0079347389 -0.77415764 0.86029726
0.0079347407 -0.77409762 0.86024415
0.0079347426 -0.77404118 0.86018747
0.0079347445 -0.77398473 0.86013788
0.0079347519 -0.77387863 0.86011648
0.0079347538 -0.77382219 0.86006689
0.0079347454 -0.77384359 0.85995382
0.0079347398 -0.77384019 0.85985833
0.0079347426 -0.77377665 0.85980868
0.0079347594 -0.77360338 0.85984731
0.0079347743 -0.77344775 0.85986829
0.0079347733 -0.77340543 0.85979748
0.0079347715 -0.77338082 0.85972315
0.0079347724 -0.77332437 0.85966653
0.0079347817 -0.77321476 0.85965574
0.0079347864 -0.77313703 0.85962021
0.0079347808 -0.7731266 0.85952473
0.0079347761 -0.77312678 0.85943282
0.0079347761 -0.77307737 0.8593691
0.0079347836 -0.77298194 0.85935128
0.0079347938 -0.77285469 0.85935104
0.007934792 -0.77283007 0.85926968
0.0079347817 -0.77286208 0.859146
0.0079347836 -0.77280563 0.85909641
0.0079347948 -0.7726748 0.85909969
0.0079347985 -0.77259707 0.85905713
0.0079347929 -0.77259725 0.85895818
0.0079347929 -0.77255493 0.85889447
0.0079348087 -0.7723887 0.858926
0.0079348125 -0.77231807 0.85888344
0.007934805 -0.77232885 0.85878092
0.0079348041 -0.77229011 0.85870659
0.0079348031 -0.77225482 0.85864294
0.0079348031 -0.77220899 0.85857564
0.0079348069 -0.77213836 0.85853308
0.0079348106 -0.77206773 0.85849053
0.0079348171 -0.7719723 0.85846567
0.0079348246 -0.77186984 0.85844779
0.007934832 -0.77177441 0.85842288
0.0079348385 -0.7716825 0.85840154
0.0079348385 -0.77163315 0.85833776
0.0079348376 -0.77159786 0.85826701
0.0079348348 -0.77157325 0.85819274
0.0079348302 -0.77156991 0.85809726
0.0079348283 -0.7715382 0.85802293
0.0079348302 -0.77147818 0.85796982
0.0079348311 -0.77142525 0.85791671
0.0079348348 -0.77135813 0.85787064
0.0079348395 -0.77127337 0.85783511
0.0079348367 -0.77125227 0.85775733
0.0079348264 -0.77128786 0.85763007
0.007934819 -0.77129507 0.85752404
0.0079348125 -0.77130586 0.85742152
0.0079348078 -0.77129543 0.85733312
0.0079347994 -0.77131331 0.85721648
0.007934791 -0.77133119 0.85710692
0.0079347892 -0.77130657 0.85702556
0.0079347827 -0.77130675 0.85692656
0.0079347789 -0.77129626 0.85683817
0.0079347724 -0.77129644 0.85673916
0.007934764 -0.77132142 0.85662252
0.0079347575 -0.77132154 0.85652351
0.0079347566 -0.77128279 0.85645628
0.0079347556 -0.77125108 0.85638201
0.0079347491 -0.77125484 0.85627943
0.0079347407 -0.77127266 0.85616988
0.0079347324 -0.77129406 0.85605681
0.0079347258 -0.77130133 0.85595071
0.0079347175 -0.77131921 0.85584116
0.0079347081 -0.77134418 0.85571748
0.007934697 -0.77138323 0.8555938
0.0079346895 -0.77139759 0.85548067
0.0079346867 -0.77137297 0.85539931
0.0079346746 -0.77141917 0.8552686
0.0079346597 -0.77148664 0.85511667
0.0079342257 -0.77456039 0.85222983
0.0079340572 -0.7757538 0.85111821
0.0079339463 -0.77656108 0.8504054
0.0079338625 -0.77714896 0.84985489
0.0079338197 -0.77743232 0.84953719
0.0079337871 -0.77763432 0.8492794
0.0079337563 -0.77782214 0.8490358
0.0079337349 -0.77793914 0.84884155
0.0079336967 -0.7781871 0.84855205
0.0079336641 -0.77838552 0.84829783
0.007933653 -0.7784282 0.84816355
0.0079336129 -0.77849984 0.84759796
0.0079335393 -0.7790134 0.84709328
0.0079335216 -0.77910203 0.84692019
0.0079335272 -0.77901018 0.84689176
0.0079335161 -0.77904928 0.84676099
0.0079335198 -0.77897871 0.8467114
0.0079335617 -0.77861422 0.84689105
