# .PCD v0.7 - Point Cloud Data file format
VERSION 0.7
FIELDS x y z rgb
SIZE 4 4 4 4
TYPE F F F U
COUNT 1 1 1 1
WIDTH 1028
HEIGHT 1
VIEWPOINT 0 0 0 1 0 0 0
POINTS 1028
DATA ascii
0.011865698 -0.78170949 0.82800746 4291512896
0.011865626 -0.78200001 0.82765442 4291512896
0.011865765 -0.78134894 0.82797861 4291512896
0.011865725 -0.78150135 0.82773489 4291512896
0.011865721 -0.78149092 0.82763237 4291512896
0.011865703 -0.78154421 0.82747334 4291512896
0.011865693 -0.78156561 0.82734609 4291512896
0.011865693 -0.78154457 0.82725412 4291512896
0.011865695 -0.78151286 0.82716572 4291512896
0.011865672 -0.78154176 0.82679808 4291512896
0.011865694 -0.7814216 0.82679075 4291512896
0.011865644 -0.78161293 0.82650822 4291512896
0.011865646 -0.7815848 0.82642335 4291512896
0.011865597 -0.7817691 0.82614785 4291512896
0.011865444 -0.78238195 0.82540286 4291512896
0.011865502 -0.78210956 0.82551908 4291512896
0.011865507 -0.78206366 0.82544482 4291512896
0.011865523 -0.78197181 0.82540929 4291512896
0.011865546 -0.78184807 0.8253985 4291512896
0.011865515 -0.78195804 0.82519007 4291512896
0.011865438 -0.78221709 0.82462126 4291512896
0.01186546 -0.78210038 0.82461047 4291512896
0.011865484 -0.78197312 0.8246032 4291512896
0.011865449 -0.78202701 0.82409769 4291512896
0.011865454 -0.78198469 0.82401985 4291512896
0.011865441 -0.78201324 0.82387847 4291512896
0.011865412 -0.78211606 0.82367712 4291512896
0.011865394 -0.78216583 0.82351452 4291512896
0.011865384 -0.78218728 0.82338023 4291512896
0.011865404 -0.78207415 0.82336593 4291512896
0.011865381 -0.78215224 0.82318217 4291512896
0.011865383 -0.78209597 0.82299823 4291512896
0.011865397 -0.78201121 0.82295567 4291512896
0.011865315 -0.7822423 0.82217473 4291512896
0.011865329 -0.782161 0.82212859 4291512896
0.011865354 -0.78202665 0.82212842 4291512896
0.011865138 -0.78278571 0.82064468 4291512896
0.011865159 -0.7826761 0.82062685 4291512896
0.011865231 -0.78233993 0.82080662 4291512896
0.011865255 -0.78220916 0.82080287 4291512896
0.011865267 -0.78213501 0.8207497 4291512896
0.011865245 -0.782206 0.82057303 4291512896
0.01186524 -0.78220618 0.82045287 4291512896
0.011865232 -0.78221345 0.82033265 4291512896
0.01186523 -0.78219593 0.82022303 4291512896
0.011865249 -0.78208989 0.82020164 4291512896
0.011865245 -0.78208303 0.82008845 4291512896
0.01186522 -0.78216463 0.81990123 4291512896
0.011865216 -0.78215778 0.8197881 4291512896
0.011865182 -0.78228188 0.81955844 4291512896
0.01186519 -0.78222185 0.81949824 4291512896
0.011865208 -0.78211939 0.81946629 4291512896
0.011865277 -0.78180093 0.81963545 4291512896
0.011865282 -0.78175157 0.81955761 4291512896
0.011865248 -0.78187215 0.81933153 4291512896
0.011865221 -0.78196436 0.8191337 4291512896
0.011865171 -0.78215933 0.81884056 4291512896
0.011865153 -0.7822091 0.81867802 4291512896
0.011865136 -0.78225529 0.818519 4291512896
0.011865159 -0.78213513 0.81850463 4291512896
0.011865181 -0.78201491 0.81849736 4291512896
0.011865149 -0.78212839 0.81827837 4291512896
0.011865128 -0.78219587 0.81809813 4291512896
0.011865053 -0.78248996 0.81771326 4291512896
0.011865159 -0.78201216 0.81802005 4291512896
0.011865114 -0.78217876 0.81775516 4291512896
0.011865082 -0.78229225 0.81753618 4291512896
0.011865067 -0.78233141 0.81737715 4291512896
0.011865017 -0.7825228 0.81708753 4291512896
0.011865012 -0.78251588 0.8169744 4291512896
0.011864968 -0.78268254 0.81670243 4291512896
0.011864966 -0.78266501 0.81659985 4291512896
0.011864984 -0.78256249 0.81657493 4291512896
0.01186497 -0.78260165 0.81641591 4291512896
0.011864997 -0.7824567 0.81642628 4291512896
0.01186503 -0.78229046 0.81645781 4291512896
0.011864896 -0.78284305 0.81583649 4291512896
0.011864999 -0.7823723 0.81614327 4291512896
0.011865001 -0.78234065 0.81605488 4291512896
0.011864986 -0.78237981 0.8158958 4291512896
0.011864859 -0.78290045 0.81529915 4291512896
0.011864876 -0.78280151 0.81527072 4291512896
0.011864887 -0.78273088 0.81521404 4291512896
0.011864888 -0.78270274 0.81512207 4291512896
0.011864893 -0.78265339 0.81504422 4291512896
0.011864969 -0.78230661 0.81523454 4291512896
0.011864935 -0.78242362 0.81501198 4291512896
0.011864939 -0.78238136 0.8149271 4291512896
0.011864554 -0.78339547 0.81093711 4291512896
0.011864591 -0.78321159 0.81097925 4291512896
0.011864523 -0.78324544 0.80971003 4291512896
0.011864319 -0.78331202 0.80575389 4291512896
0.01186358 -0.78398675 0.79308712 4291512896
0.011863371 -0.78467172 0.79145128 4291512896
0.011863315 -0.78487736 0.79110515 4291512896
0.011863418 -0.78439265 0.79132712 4291512896
0.011863477 -0.7841202 0.79146451 4291512896
0.011863285 -0.78467464 0.78967649 4291512896
0.011863336 -0.78443402 0.7897892 4291512896
0.011863163 -0.78502303 0.78850323 4291512896
0.011863292 -0.78436875 0.7886259 4291512896
0.011863299 -0.78431582 0.78854454 4291512896
0.011863295 -0.78430194 0.78841722 4291512896
0.01186311 -0.78499317 0.78729051 4291512896
0.011863107 -0.78497571 0.78717381 4291512896
0.011863082 -0.78505385 0.7869547 4291512896
0.011863193 -0.78456181 0.78732514 4291512896
0.011863032 -0.78520304 0.78652364 4291512896
0.011863005 -0.78528827 0.7862975 4291512896
0.01186301 -0.78524244 0.78620905 4291512896
0.011862927 -0.78544897 0.78529721 4291512896
0.011862929 -0.7854138 0.78519815 4291512896
0.011862873 -0.78561586 0.78484845 4291512896
0.01186281 -0.78579718 0.78423709 4291512896
0.011862959 -0.7851212 0.7846638 4291512896
0.011862914 -0.78527725 0.78435999 4291512896
0.011862896 -0.78532356 0.78417265 4291512896
0.011862851 -0.7854867 0.78386182 4291512896
0.01186277 -0.7857669 0.78328598 4291512896
0.011862919 -0.78511906 0.78382587 4291512896
0.011862911 -0.78511924 0.78368443 4291512896
0.011862773 -0.78566843 0.78296763 4291512896
0.011862773 -0.78563678 0.78286505 4291512896
0.011862772 -0.7856158 0.78274482 4291512896
0.01186279 -0.78551328 0.78271282 4291512896
0.011862834 -0.78530103 0.78279024 4291512896
0.011862845 -0.78522688 0.78273004 4291512896
0.011862663 -0.78595668 0.78182614 4291512896
0.011862678 -0.78586131 0.78178 4291512896
0.011862754 -0.78552157 0.7819916 4291512896
0.011862847 -0.78510737 0.78229141 4291512896
0.011862634 -0.78593659 0.78113312 4291512896
0.011862654 -0.78581995 0.78111523 4291512896
0.011862677 -0.78569978 0.78110093 4291512896
0.011862695 -0.78559375 0.78107244 4291512896
0.011862743 -0.78536731 0.78116399 4291512896
0.011862773 -0.78521526 0.78118849 4291512896
0.011862774 -0.78518009 0.7810753 4291512896
0.011862766 -0.78518385 0.7809304 4291512896
0.011862735 -0.78528327 0.78068304 4291512896
0.011862503 -0.78621846 0.77955317 4291512896
0.011862485 -0.78626829 0.77936238 4291512896
0.011862577 -0.7858296 0.77953839 4291512896
0.011862594 -0.78573066 0.77949584 4291512896
0.011862585 -0.78573442 0.77935088 4291512896
0.011862467 -0.78619862 0.77871877 4291512896
0.01186246 -0.78619885 0.77857029 4291512896
0.01186246 -0.78617078 0.77845711 4291512896
0.011862561 -0.78572118 0.77879226 4291512896
0.011862673 -0.78522915 0.77917683 4291512896
0.011862542 -0.78574294 0.77848119 4291512896
0.01186249 -0.78593087 0.77813852 4291512896
0.011862461 -0.78599507 0.77778506 4291512896
0.011862437 -0.7860626 0.77756953 4291512896
0.011862424 -0.78608763 0.77739632 4291512896
0.011862428 -0.78604537 0.77729726 4291512896
0.011862452 -0.78588647 0.77718031 4291512896
0.011862471 -0.78578049 0.77714479 4291512896
0.011862534 -0.78549027 0.77731401 4291512896
0.011862312 -0.78637946 0.77621591 4291512896
0.011862323 -0.78630537 0.77614862 4291512896
0.011862348 -0.78617454 0.77614486 4291512896
0.011862376 -0.78602958 0.77615523 4291512896
0.011862363 -0.78605103 0.77598554 4291512896
0.011862286 -0.78633815 0.77552992 4291512896
0.011862218 -0.78659344 0.77511317 4291512896
0.011862189 -0.78668576 0.77486581 4291512896
0.011862219 -0.78653014 0.77489388 4291512896
0.01186221 -0.78654099 0.7747348 4291512896
0.011862407 -0.78569829 0.77548999 4291512896
0.011862298 -0.78576517 0.77352434 4291512896
0.011862301 -0.78572643 0.77342176 4291512896
0.01186209 -0.78642207 0.7717824 4291512896
0.011862107 -0.78632313 0.77173984 4291512896
0.011862149 -0.78611797 0.77181727 4291512896
0.011861829 -0.78729153 0.76980036 4291512896
0.011861729 -0.78728431 0.76771086 4291512896
0.011861223 -0.78810227 0.76042193 4291512896
0.01186123 -0.78804231 0.76034051 4291512896
0.011861225 -0.78803545 0.76019204 4291512896
0.011861125 -0.78736782 0.75550634 4291512896
0.011861131 -0.78731495 0.75541079 4291512896
0.011860335 -0.78935456 0.74695355 4291512896
0.0098898793 -0.77609462 0.85093814 4291512896
0.0098898578 -0.77631426 0.85066974 4291512896
0.0098897787 -0.77712864 0.8499499 4291512896
0.0098897424 -0.77749693 0.84956867 4291512896
0.0098897237 -0.77768826 0.84932148 4291512896
0.0098897126 -0.77779466 0.84913778 4291512896
0.0098897032 -0.77789044 0.84895766 4291512896
0.0098896911 -0.77801448 0.84876341 4291512896
0.0098896651 -0.77828014 0.84845626 4291512896
0.0098896502 -0.77842903 0.84823728 4291512896
0.0098895617 -0.77932262 0.84662658 4291512896
0.0098895608 -0.7793299 0.84652048 4291512896
0.0098896138 -0.77877814 0.84663981 4291512896
0.0098896185 -0.77872872 0.84657609 4291512896
0.0098895421 -0.77950776 0.84587026 4291512896
0.0098895589 -0.77933091 0.8459053 4291512896
0.0098895701 -0.77921778 0.84588391 4291512896
0.0098895738 -0.77917546 0.84582025 4291512896
0.0098895719 -0.77919334 0.8457036 4291512896
0.0098895691 -0.77922541 0.84557283 4291512896
0.0098895719 -0.77919012 0.84549499 4291512896
0.0098895766 -0.77914077 0.84543127 4291512896
0.0098895757 -0.77915156 0.84532166 4291512896
0.0098895775 -0.77912343 0.84523678 4291512896
0.0098895831 -0.7790705 0.84517658 4291512896
0.0098895943 -0.77895027 0.84516931 4291512896
0.0098894937 -0.77996081 0.84343505 4291512896
0.0098893866 -0.78101593 0.84037149 4291512896
0.0098893987 -0.78089219 0.84036064 4291512896
0.0098894434 -0.78043568 0.84062505 4291512896
0.0098894462 -0.78039688 0.84055078 4291512896
0.0098894695 -0.78015631 0.84064227 4291512896
0.0098894499 -0.78035831 0.84037036 4291512896
0.0098894471 -0.78037971 0.84024316 4291512896
0.0098894434 -0.78041887 0.8401053 4291512896
0.0098894173 -0.78068453 0.83978403 4291512896
0.0098894211 -0.78064579 0.8397097 4291512896
0.0098893614 -0.78125137 0.83911324 4291512896
0.0098894266 -0.78058612 0.83943737 4291512896
0.009889436 -0.78048044 0.83920383 4291512896
0.0098894341 -0.78049833 0.83908015 4291512896
0.0098894248 -0.78059071 0.83879745 4291512896
0.0098894313 -0.78052366 0.83874428 4291512896
0.0098894397 -0.78043175 0.83870882 4291512896
0.0098893726 -0.78111559 0.83782959 4291512896
0.0098893847 -0.78098834 0.83782935 4291512896
0.0098893903 -0.78092474 0.83777267 4291512896
0.0098893959 -0.78086829 0.83770895 4291512896
0.0098894089 -0.78073394 0.83770877 4291512896
0.0098894173 -0.78064209 0.83768028 4291512896
0.0098894229 -0.78058559 0.83761656 4291512896
0.0098894015 -0.7807982 0.8373341 4291512896
0.0098893913 -0.78090817 0.83713275 4291512896
0.0098893885 -0.78092599 0.83701611 4291512896
0.0098893894 -0.78091913 0.83691001 4291512896
0.0098893885 -0.78092283 0.8368004 4291512896
0.0098893894 -0.7809124 0.83669788 4291512896
0.0098893968 -0.78083825 0.8366518 4291512896
0.0098893903 -0.78090215 0.83648926 4291512896
0.0098893838 -0.78096962 0.8363232 4291512896
0.0098893978 -0.78081757 0.83634061 4291512896
0.0098893885 -0.78090978 0.8361569 4291512896
0.0098893726 -0.7810728 0.83590972 4291512896
0.0098893559 -0.78123939 0.83566606 4291512896
0.0098893652 -0.78114754 0.83563054 4291512896
0.0098893763 -0.78103089 0.83561975 4291512896
0.0098893773 -0.78101689 0.83552068 4291512896
0.0098893717 -0.78107017 0.83536875 4291512896
0.0098893633 -0.78115886 0.83518153 4291512896
0.0098893689 -0.78109181 0.83512837 4291512896
0.0098893736 -0.78104591 0.83506113 4291512896
0.009889368 -0.7810992 0.83490211 4291512896
0.0098893736 -0.78104633 0.83483487 4291512896
0.0098893782 -0.7809934 0.83477467 4291512896
0.009889381 -0.78096521 0.8346898 4291512896
0.0098893773 -0.78099376 0.83455545 4291512896
0.0098893428 -0.78134799 0.83414596 4291512896
0.0098893391 -0.78138 0.8340081 4291512896
0.0098893549 -0.78121734 0.83403611 4291512896
0.0098893652 -0.7811113 0.83401471 4291512896
0.0098893642 -0.78112209 0.83389807 4291512896
0.0098893559 -0.78120017 0.8337214 4291512896
0.0098893493 -0.78126413 0.83355182 4291512896
0.0098893549 -0.7812112 0.83348453 4291512896
0.0098893559 -0.78120071 0.8333891 4291512896
0.0098893363 -0.78139567 0.83311009 4291512896
0.0098893335 -0.78142065 0.83297932 4291512896
0.0098893354 -0.78139603 0.83289093 4291512896
0.0098893465 -0.78128642 0.83287305 4291512896
0.0098893484 -0.78125829 0.83278108 4291512896
0.0098893447 -0.78130096 0.83263969 4291512896
0.0098893419 -0.78132594 0.83250892 4291512896
0.0098893475 -0.7812596 0.83200324 4291512896
0.0098893531 -0.78119957 0.83194304 4291512896
0.0098893456 -0.78127056 0.83177346 4291512896
0.0098893382 -0.78134513 0.83160037 4291512896
0.0098893465 -0.78126031 0.83155781 4291512896
0.0098893503 -0.78122157 0.83148348 4291512896
0.0098893577 -0.78114033 0.83143735 4291512896
0.0098893484 -0.78123254 0.83124661 4291512896
0.009889327 -0.78144521 0.83095706 4291512896
0.0098893465 -0.78124058 0.83068091 4291512896
0.0098893493 -0.78120887 0.83059955 4291512896
0.009889286 -0.78185344 0.82993597 4291512896
0.0098893 -0.78170532 0.82972354 4291512896
0.0098893363 -0.78132725 0.8295992 4291512896
0.0098893382 -0.78129911 0.82950723 4291512896
0.0098892963 -0.78173137 0.82892102 4291512896
0.0098892953 -0.78173512 0.82881147 4291512896
0.0098892972 -0.78171408 0.8287124 4291512896
0.0098893018 -0.78166467 0.82864159 4291512896
0.0098892963 -0.78172153 0.82848614 4291512896
0.0098893307 -0.78135425 0.82823098 4291512896
0.0098893316 -0.78134733 0.82812494 4291512896
0.0098892497 -0.78215665 0.82619584 4291512896
0.0098893093 -0.78154099 0.82649183 4291512896
0.0098893112 -0.78152347 0.82639635 4291512896
0.0098893149 -0.78147799 0.82608867 4291512896
0.009889286 -0.78177208 0.82572496 4291512896
0.0098892804 -0.78182888 0.82556242 4291512896
0.009889286 -0.78176183 0.82550931 4291512896
0.0098892739 -0.78188944 0.82528323 4291512896
0.0098892618 -0.7820065 0.82506776 4291512896
0.0098892711 -0.78191459 0.82503223 4291512896
0.0098892786 -0.78182983 0.82498968 4291512896
0.009889286 -0.78175235 0.8248269 4291512896
0.0098892534 -0.78208178 0.82442796 4291512896
0.0098892441 -0.78217757 0.82423365 4291512896
0.0098892497 -0.78211761 0.82416636 4291512896
0.0098892571 -0.78203988 0.8241238 4291512896
0.0098892767 -0.78183824 0.82418358 4291512896
0.0098892925 -0.78167558 0.82420456 4291512896
0.0098893018 -0.78157663 0.82417607 4291512896
0.0098892879 -0.7817086 0.82348686 4291512896
0.0098892776 -0.78181148 0.82327849 4291512896
0.0098892339 -0.78224438 0.82232457 4291512896
0.0098892404 -0.78217727 0.82226437 4291512896
0.0098892571 -0.78200048 0.82230651 4291512896
0.0098892655 -0.78191215 0.82226747 4291512896
0.0098892413 -0.78214735 0.82112938 4291512896
0.0098892618 -0.7819351 0.82119977 4291512896
0.0098892823 -0.78171581 0.82127011 4291512896
0.0098892832 -0.78171241 0.8211605 4291512896
0.0098892562 -0.78197819 0.82080388 4291512896
0.009889245 -0.78209525 0.82058841 4291512896
0.0098892404 -0.78214145 0.82042938 4291512896
0.0098892432 -0.7821098 0.82033384 4291512896
0.0098892432 -0.78210646 0.82022423 4291512896
0.009889191 -0.78263795 0.81951803 4291512896
0.0098892162 -0.78237259 0.81963426 4291512896
0.0098892245 -0.78228778 0.8195917 4291512896
0.0098892367 -0.78216052 0.81958437 4291512896
0.0098892422 -0.78210407 0.81952065 4291512896
0.0098892432 -0.78209013 0.81941456 4291512896
0.0098892292 -0.78222841 0.81917083 4291512896
0.0098892218 -0.78230649 0.81898004 4291512896
0.0098892115 -0.78240228 0.81877869 4291512896
0.0098892041 -0.78248036 0.8185879 4291512896
0.0098892171 -0.78234601 0.81859475 4291512896
0.0098892339 -0.78217274 0.81862628 4291512896
0.0098892432 -0.78207731 0.81859428 4291512896
0.0098892273 -0.78222978 0.81833649 4291512896
0.0098892031 -0.78247821 0.8177641 4291512896
0.0098892255 -0.78224117 0.81785214 4291512896
0.0098892422 -0.78206789 0.8178907 4291512896
0.0098891798 -0.78270191 0.81720233 4291512896
0.0098891743 -0.78275871 0.81703275 4291512896
0.0098891882 -0.78261042 0.81692642 4291512896
0.0098892059 -0.78243005 0.81696498 4291512896
0.0098892115 -0.78236651 0.81690836 4291512896
0.0098892208 -0.78227109 0.81686932 4291512896
0.0098892218 -0.78226423 0.81675613 4291512896
0.0098891854 -0.78263265 0.81630421 4291512896
0.0098891733 -0.7827462 0.81607813 4291512896
0.0098892022 -0.78244263 0.81575233 4291512896
0.0098891892 -0.7825774 0.81551212 4291512896
0.0098891929 -0.78253514 0.81542724 4291512896
0.0098892022 -0.78242654 0.81480128 4291512896
0.0098891687 -0.782727 0.81270164 4291512896
0.0098891668 -0.78274202 0.81219256 4291512896
0.0098891715 -0.78268909 0.81211823 4291512896
0.0098889461 -0.7846545 0.79312503 4291512896
0.00988896 -0.78450954 0.7931354 4291512896
0.0098889004 -0.78505963 0.78974217 4291512896
0.0098888762 -0.78525853 0.78705901 4291512896
0.009888852 -0.78550315 0.78667408 4291512896
0.0098889256 -0.78470379 0.78471762 4291512896
0.0098889209 -0.78474301 0.78453732 4291512896
0.0098888278 -0.78568244 0.78300095 4291512896
0.009888839 -0.78556937 0.78297955 4291512896
0.0098888101 -0.78585339 0.78225172 4291512896
0.0098889275 -0.78465301 0.78337049 4291512896
0.0098888082 -0.78586805 0.78195471 4291512896
0.0098888027 -0.78591788 0.78176391 4291512896
0.0098888371 -0.78557104 0.78198254 4291512896
0.0098888753 -0.78517455 0.78225762 4291512896
0.009888906 -0.78485602 0.78245509 4291512896
0.0098887952 -0.78598964 0.78112054 4291512896
0.0098888101 -0.78583401 0.78114152 4291512896
0.009888811 -0.78582013 0.7810142 4291512896
0.009888798 -0.78594428 0.78074217 4291512896
0.0098887812 -0.78611809 0.78041363 4291512896
0.0098888353 -0.7855587 0.78086525 4291512896
0.0098887887 -0.78603709 0.78021199 4291512896
0.0098887654 -0.7862711 0.77982348 4291512896
0.0098887607 -0.78631032 0.77964324 4291512896
0.009888758 -0.78634238 0.77946293 4291512896
0.0098888213 -0.78568739 0.78001696 4291512896
0.0098887999 -0.78590369 0.7796461 4291512896
0.0098888101 -0.78580123 0.779607 4291512896
0.0098887766 -0.7861346 0.7789712 4291512896
0.0098887803 -0.78609234 0.77887213 4291512896
0.0098888027 -0.78586948 0.77896011 4291512896
0.009888798 -0.78590864 0.77877986 4291512896
0.0098887915 -0.78596914 0.77857137 4291512896
0.0098887868 -0.78602248 0.77836996 4291512896
0.009888784 -0.78604752 0.77820385 4291512896
0.0098887822 -0.78605837 0.77804476 4291512896
0.0098887878 -0.7859984 0.77796334 4291512896
0.0098887952 -0.78592426 0.77790308 4291512896
0.0098887971 -0.78589618 0.77778989 4291512896
0.0098887915 -0.78595304 0.77758497 4291512896
0.009888798 -0.78588247 0.7775141 4291512896
0.0098888027 -0.78583312 0.77742213 4291512896
0.0098887924 -0.78593963 0.77716064 4291512896
0.0098887626 -0.78624094 0.77669799 4291512896
0.0098887412 -0.78645366 0.77632362 4291512896
0.0098887701 -0.78614956 0.77635843 4291512896
0.0098887477 -0.78637999 0.77596641 4291512896
0.0098887449 -0.78640503 0.77579319 4291512896
0.0098887505 -0.78633797 0.77571881 4291512896
0.0098887458 -0.78638428 0.77552444 4291512896
0.0098887384 -0.78645891 0.77530181 4291512896
0.0098887403 -0.78644145 0.77517807 4291512896
0.0098887179 -0.78666836 0.77478951 4291512896
0.0098887309 -0.78652692 0.77478927 4291512896
0.0098887589 -0.7862367 0.77495849 4291512896
0.0098886658 -0.78705889 0.76740444 4291512896
0.0098886769 -0.78694582 0.76738304 4291512896
0.0098886425 -0.78727949 0.76656336 4291512896
0.009888621 -0.78749937 0.7661677 4291512896
0.0098886341 -0.78736502 0.76616043 4291512896
0.0098885586 -0.78804177 0.7609961 4291512896
0.0098884832 -0.78861159 0.74998033 4291512896
0.009888459 -0.78874832 0.74428833 4291512896
0.0098884609 -0.78872377 0.7441504 4291512896
0.0079372441 -0.77460772 0.85211682 4291512896
0.007937165 -0.77560258 0.85125929 4291512896
0.0079371482 -0.775801 0.85101211 4291512896
0.007937097 -0.77644181 0.85042274 4291512896
0.0079370374 -0.77719247 0.84974509 4291512896
0.0079370188 -0.77741915 0.84947675 4291512896
0.0079369973 -0.77768129 0.84917313 4291512896
0.0079369824 -0.77786195 0.84892946 4291512896
0.0079369694 -0.77802145 0.84870696 4291512896
0.0079369554 -0.77819502 0.84847033 4291512896
0.0079369452 -0.77832615 0.84826905 4291512896
0.0079369415 -0.77837235 0.84813124 4291512896
0.0079369033 -0.77882999 0.84715968 4291512896
0.007936893 -0.77895051 0.84696895 4291512896
0.0079368968 -0.7789011 0.84690523 4291512896
0.0079369014 -0.77883756 0.84684855 4291512896
0.007936907 -0.77877045 0.84680247 4291512896
0.0079369098 -0.77872461 0.84673524 4291512896
0.007936894 -0.77892303 0.84647393 4291512896
0.0079369014 -0.77882051 0.84645611 4291512896
0.0079369014 -0.77881718 0.84635353 4291512896
0.0079369061 -0.77876067 0.84629691 4291512896
0.0079369117 -0.77868652 0.84625083 4291512896
0.0079368781 -0.77910101 0.84571761 4291512896
0.0079368772 -0.7791118 0.84560806 4291512896
0.0079368828 -0.77903408 0.8455655 4291512896
0.0079368791 -0.77908021 0.84542769 4291512896
0.0079368567 -0.77935296 0.84510636 4291512896
0.0079368772 -0.77908784 0.84510946 4291512896
0.0079368744 -0.77911633 0.84498227 4291512896
0.0079368073 -0.77988142 0.84186864 4291512896
0.0079367887 -0.78010815 0.84157908 4291512896
0.007936785 -0.78015083 0.84143776 4291512896
0.0079367915 -0.78006953 0.84139872 4291512896
0.0079367831 -0.78016174 0.84121501 4291512896
0.0079367701 -0.78032476 0.84098196 4291512896
0.0079367729 -0.78028953 0.84090412 4291512896
0.007936758 -0.78047025 0.84064633 4291512896
0.0079367599 -0.78044564 0.84056497 4291512896
0.0079367692 -0.78032547 0.84055769 4291512896
0.0079367673 -0.78034329 0.84043396 4291512896
0.0079367608 -0.78042138 0.84026438 4291512896
0.0079367617 -0.78040385 0.84016889 4291512896
0.0079367645 -0.78036505 0.84009457 4291512896
0.0079367384 -0.78068757 0.83962488 4291512896
0.0079367366 -0.78070897 0.83949763 4291512896
0.0079367431 -0.78062773 0.83945858 4291512896
0.0079367375 -0.78068453 0.83930314 4291512896
0.0079367412 -0.78063512 0.83923942 4291512896
0.0079367487 -0.78053975 0.83920747 4291512896
0.0079367515 -0.78050804 0.83912611 4291512896
0.0079367533 -0.78047991 0.83904117 4291512896
0.0079367477 -0.78054023 0.83888924 4291512896
0.007936731 -0.78075284 0.83860677 4291512896
0.0079367356 -0.78068572 0.83855361 4291512896
0.0079367412 -0.78061157 0.83850753 4291512896
0.0079367394 -0.78063649 0.83838385 4291512896
0.0079367366 -0.78066498 0.8382495 4291512896
0.0079367477 -0.78052002 0.83825988 4291512896
0.0079367543 -0.78043169 0.83822793 4291512896
0.0079367468 -0.78052038 0.83804774 4291512896
0.0079367366 -0.78065151 0.83783227 4291512896
0.0079367291 -0.78074372 0.83764863 4291512896
0.0079367319 -0.78069788 0.83758134 4291512896
0.0079367328 -0.78069097 0.8374753 4291512896
0.007936731 -0.78070176 0.83735859 4291512896
0.0079367347 -0.78065592 0.83729136 4291512896
0.00793673 -0.78070563 0.83714294 4291512896
0.007936717 -0.78087223 0.83689219 4291512896
0.0079367161 -0.7808724 0.83678615 4291512896
0.007936717 -0.78086191 0.83669066 4291512896
0.007936717 -0.78086209 0.83657753 4291512896
0.0079367198 -0.78082335 0.83650321 4291512896
0.0079367245 -0.78075624 0.8364501 4291512896
0.0079367282 -0.78070331 0.83638281 4291512896
0.0079367263 -0.78073186 0.83624852 4291512896
0.0079367217 -0.78078157 0.8361001 4291512896
0.0079367161 -0.78084898 0.83593404 4291512896
0.0079367077 -0.78094828 0.83574325 4291512896
0.0079367021 -0.78101927 0.83557367 4291512896
0.0079367012 -0.78103006 0.83545703 4291512896
0.0079367049 -0.78097361 0.83539331 4291512896
0.0079367105 -0.78090298 0.83534372 4291512896
0.0079367151 -0.78083587 0.83529055 4291512896
0.0079367189 -0.78079361 0.83521271 4291512896
0.0079367151 -0.78083271 0.83507484 4291512896
0.0079366993 -0.78102762 0.83479589 4291512896
0.0079366984 -0.78103131 0.83468628 4291512896
0.0079367068 -0.78092527 0.83466488 4291512896
0.0079367086 -0.78090066 0.83457649 4291512896
0.0079367068 -0.78091854 0.83445275 4291512896
0.0079367086 -0.78088683 0.8343643 4291512896
0.0079367114 -0.78084809 0.83429003 4291512896
0.0079367114 -0.78084826 0.83417684 4291512896
0.0079367151 -0.78079885 0.83411318 4291512896
0.0079367151 -0.780792 0.83400708 4291512896
0.007936703 -0.78094083 0.83376688 4291512896
0.0079367058 -0.78090918 0.83368552 4291512896
0.0079366956 -0.78103322 0.83347005 4291512896
0.0079366909 -0.78107959 0.83321202 4291512896
0.0079366872 -0.78112227 0.8330636 4291512896
0.0079366881 -0.78110123 0.83297163 4291512896
0.0079366956 -0.78100938 0.83293617 4291512896
0.007936703 -0.78091395 0.83291125 4291512896
0.0079366909 -0.78106278 0.83267105 4291512896
0.0079366742 -0.78126121 0.83239561 4291512896
0.0079366751 -0.78124726 0.83229661 4291512896
0.0079366853 -0.78112 0.83228934 4291512896
0.0079366844 -0.78113079 0.83217269 4291512896
0.0079366807 -0.78117341 0.83202428 4291512896
0.0079366807 -0.78116655 0.83191818 4291512896
0.0079366853 -0.78111005 0.83185446 4291512896
0.0079366975 -0.78094381 0.83188599 4291512896
0.0079366928 -0.78100067 0.83172345 4291512896
0.0079366779 -0.7811814 0.83145857 4291512896
0.0079366779 -0.78118515 0.83134192 4291512896
0.0079367105 -0.78077465 0.83158165 4291512896
0.0079366844 -0.7810865 0.83109426 4291512896
0.0079366844 -0.78108335 0.83087152 4291512896
0.0079366742 -0.78120744 0.83065605 4291512896
0.0079366602 -0.78138107 0.83039826 4291512896
0.0079366593 -0.78138125 0.83028507 4291512896
0.0079366695 -0.78125399 0.8302778 4291512896
0.007936676 -0.78117275 0.83023882 4291512896
0.0079366313 -0.78172171 0.8296563 4291512896
0.0079366332 -0.78169352 0.82957143 4291512896
0.0079366602 -0.78135031 0.82975119 4291512896
0.0079366546 -0.78141773 0.82957804 4291512896
0.0079366406 -0.78159142 0.82932025 4291512896
0.0079366388 -0.78161633 0.82918948 4291512896
0.0079366416 -0.78157049 0.82911515 4291512896
0.0079366378 -0.78161317 0.82896674 4291512896
0.0079366425 -0.78155673 0.82890296 4291512896
0.0079366406 -0.78157103 0.8287757 4291512896
0.0079366304 -0.78169513 0.82856023 4291512896
0.0079366202 -0.7817955 0.82769066 4291512896
0.0079366239 -0.78174967 0.82761633 4291512896
0.0079366462 -0.78146309 0.82774669 4291512896
0.0079366537 -0.78137124 0.82771122 4291512896
0.0079366611 -0.78127581 0.82767922 4291512896
0.0079366583 -0.78130788 0.82754141 4291512896
0.0079366593 -0.78129035 0.82744592 4291512896
0.007936663 -0.78124094 0.82737511 4291512896
0.007936663 -0.78123051 0.82727259 4291512896
0.0079366388 -0.78153515 0.82689828 4291512896
0.0079366127 -0.78185064 0.82640028 4291512896
0.0079366118 -0.78186494 0.82627302 4291512896
0.0079366015 -0.78198195 0.82606459 4291512896
0.0079366257 -0.78167415 0.82620907 4291512896
0.0079366295 -0.78163183 0.82613122 4291512896
0.0079366304 -0.78160721 0.82604277 4291512896
0.0079366481 -0.78138793 0.82611316 4291512896
0.0079365736 -0.78230524 0.82509995 4291512896
0.0079365866 -0.7821461 0.82512444 4291512896
0.0079365969 -0.78201526 0.82512069 4291512896
0.0079366351 -0.78152353 0.82531434 4291512896
0.0079366332 -0.7815485 0.82517648 4291512896
0.0079366034 -0.78191334 0.82474929 4291512896
0.0079365959 -0.78200555 0.8245585 4291512896
0.0079366062 -0.78187829 0.82455122 4291512896
0.0079366108 -0.78181475 0.82448751 4291512896
0.007936608 -0.78184682 0.82434964 4291512896
0.0079365959 -0.78198504 0.82411301 4291512896
0.0079365978 -0.78195691 0.82402104 4291512896
0.0079366062 -0.78185445 0.82399613 4291512896
0.0079366071 -0.78183341 0.82389706 4291512896
0.0079366183 -0.78169197 0.82390392 4291512896
0.0079366099 -0.78179497 0.82358944 4291512896
0.0079365959 -0.78196514 0.82332098 4291512896
0.0079365755 -0.78220958 0.82299262 4291512896
0.0079365866 -0.78206128 0.82289338 4291512896
0.0079365969 -0.78193754 0.82288253 4291512896
0.0079366006 -0.78188461 0.8228153 4291512896
0.0079365885 -0.7820335 0.82256806 4291512896
0.0079365894 -0.78201956 0.82246196 4291512896
0.0079365913 -0.78198433 0.82237709 4291512896
0.0079366006 -0.78186411 0.82236981 4291512896
0.0079366006 -0.78186429 0.82224959 4291512896
0.0079366025 -0.78183615 0.82215762 4291512896
0.0079366053 -0.78180093 0.82207268 4291512896
0.0079365922 -0.781964 0.82181841 4291512896
0.0079365876 -0.78201729 0.82165229 4291512896
0.0079365755 -0.78215909 0.82141215 4291512896
0.0079365904 -0.78196454 0.82146484 4291512896
0.0079365922 -0.78193992 0.82136935 4291512896
0.0079365997 -0.78184807 0.82133383 4291512896
0.0079365913 -0.78195095 0.82112545 4291512896
0.0079365941 -0.78190511 0.82105112 4291512896
0.0079365904 -0.78194779 0.82089561 4291512896
0.0079365838 -0.7820223 0.82070833 4291512896
0.0079365764 -0.78211808 0.82050699 4291512896
0.007936568 -0.78221744 0.82030207 4291512896
0.0079365652 -0.78224945 0.82015717 4291512896
0.0079365615 -0.78228861 0.82000518 4291512896
0.0079365615 -0.78228879 0.81988502 4291512896
0.0079365605 -0.78229958 0.81976128 4291512896
0.0079365605 -0.78228915 0.81965166 4291512896
0.0079365689 -0.78217959 0.81962669 4291512896
0.0079365792 -0.78205234 0.81962651 4291512896
0.0079365624 -0.78226143 0.81931925 4291512896
0.0079365633 -0.78223681 0.81922376 4291512896
0.0079366136 -0.78159988 0.8195551 4291512896
0.0079365866 -0.78193647 0.81913489 4291512896
0.0079365755 -0.78207469 0.8188982 4291512896
0.0079365633 -0.78222007 0.81864744 4291512896
0.0079365494 -0.78238666 0.81838256 4291512896
0.007936555 -0.78231955 0.8183223 4291512896
0.007936554 -0.7823168 0.81785208 4291512896
0.0079365429 -0.78244442 0.81761187 4291512896
0.0079365326 -0.78257209 0.81737876 4291512896
0.0079365419 -0.78244501 0.81725836 4291512896
0.0079365503 -0.78234607 0.81722987 4291512896
0.0079365522 -0.78227031 0.81597114 4291512896
0.0079365531 -0.78225982 0.81586152 4291512896
0.0079365326 -0.7825079 0.8155154 4291512896
0.0079365345 -0.78247619 0.81542695 4291512896
0.0079364991 -0.78289223 0.81395328 4291512896
0.0079365037 -0.7828216 0.81389666 4291512896
0.0079364898 -0.78294116 0.81207603 4291512896
0.0079364907 -0.78292722 0.81196284 4291512896
0.0079362849 -0.78487611 0.7914952 4291512896
0.0079362541 -0.78516728 0.78847277 4291512896
0.0079362262 -0.78548044 0.78718632 4291512896
0.0079362374 -0.78533548 0.7871967 4291512896
0.0079362756 -0.78485096 0.78728431 4291512896
0.0079362923 -0.78458452 0.78589088 4291512896
0.0079362765 -0.78476602 0.78515226 4291512896
0.0079362001 -0.78566444 0.78267527 4291512896
0.0079362513 -0.7850064 0.78294295 4291512896
0.0079362253 -0.78532225 0.78218329 4291512896
0.0079362374 -0.7851631 0.78220779 4291512896
0.0079361666 -0.786035 0.78086567 4291512896
0.0079361685 -0.78600335 0.78075606 4291512896
0.0079361694 -0.78598589 0.78063226 4291512896
0.0079361415 -0.78630954 0.7794413 4291512896
0.0079361536 -0.7861504 0.77946579 4291512896
0.0079361526 -0.78615063 0.77931732 4291512896
0.0079361461 -0.78622878 0.77909118 4291512896
0.0079361424 -0.78627855 0.77890033 4291512896
0.0079361415 -0.78628236 0.77874827 4291512896
0.007936161 -0.78603822 0.77886456 4291512896
0.0079361517 -0.78614819 0.77860665 4291512896
0.007936134 -0.78636092 0.77823222 4291512896
0.0079361442 -0.78622305 0.77823555 4291512896
0.0079362178 -0.78530955 0.77906847 4291512896
0.0079361917 -0.78563207 0.7785846 4291512896
0.0079361536 -0.7860927 0.77794188 4291512896
0.0079361489 -0.78614604 0.77774751 4291512896
0.0079361498 -0.78613567 0.77760959 4291512896
0.0079361657 -0.78593755 0.77767998 4291512896
0.0079361899 -0.78562969 0.7778669 4291512896
0.0079361759 -0.78579634 0.77753836 4291512896
0.0079361508 -0.78609765 0.77707571 4291512896
0.0079361433 -0.78619349 0.77682483 4291512896
0.007936147 -0.78613704 0.77674693 4291512896
0.0079361517 -0.7860806 0.77666199 4291512896
0.007936148 -0.78612334 0.7764641 4291512896
0.0079361331 -0.78629708 0.77613556 4291512896
0.0079361172 -0.78649569 0.77578229 4291512896
0.0079361945 -0.78552902 0.77667528 4291512896
0.0079361917 -0.78555405 0.77650207 4291512896
0.0079362001 -0.78545159 0.77646303 4291512896
0.0079361983 -0.78546602 0.77630746 4291512896
0.007936107 -0.78659242 0.77495164 4291512896
0.0079361079 -0.78657854 0.77481723 4291512896
0.0079361284 -0.78631312 0.77496177 4291512896
0.0079361377 -0.78619647 0.77493685 4291512896
0.0079361396 -0.78616482 0.77482718 4291512896
0.0079361405 -0.78615445 0.77468926 4291512896
0.0079360818 -0.78685027 0.77291554 4291512896
0.0079360297 -0.78739023 0.76907331 4291512896
0.0079360558 -0.78702402 0.76813227 4291512896
0.0079360036 -0.78758091 0.76480263 4291512896
0.0079360651 -0.78679204 0.76507366 4291512896
0.0079359673 -0.78796989 0.7625441 4291512896
0.0059651374 -0.77532005 0.85151726 4291512896
0.0059651299 -0.7754795 0.85129476 4291512896
0.005965055 -0.77661252 0.85033506 4291512896
0.0059650405 -0.77687824 0.85002792 4291512896
0.0059650084 -0.77739525 0.8495338 4291512896
0.0059649916 -0.77768922 0.84920549 4291512896
0.0059649912 -0.7777496 0.84906065 4291512896
0.0059649902 -0.77781701 0.84890169 4291512896
0.0059649847 -0.77795178 0.84869683 4291512896
0.00596498 -0.7780723 0.84850615 4291512896
0.0059649739 -0.77821052 0.84829777 4291512896
0.0059649721 -0.77866507 0.84713179 4291512896
0.0059649739 -0.77869707 0.84700102 4291512896
0.0059649656 -0.77886719 0.84676796 4291512896
0.0059649684 -0.77888155 0.84665489 4291512896
0.0059649767 -0.7788713 0.84645331 4291512896
0.0059649786 -0.77889621 0.84633672 4291512896
0.0059649781 -0.77895659 0.84618479 4291512896
0.0059649781 -0.77900988 0.84603989 4291512896
0.0059649847 -0.77897465 0.84596205 4291512896
0.005964993 -0.77890402 0.84591246 4291512896
0.0059650051 -0.7787838 0.84590518 4291512896
0.005965014 -0.77870613 0.84586263 4291512896
0.005965021 -0.77865672 0.84579885 4291512896
0.0059649958 -0.77907819 0.84536475 4291512896
0.0059649893 -0.77922708 0.84514576 4291512896
0.0059650154 -0.77890503 0.84529728 4291512896
0.0059650303 -0.77874237 0.8453182 4291512896
0.0059650172 -0.78037912 0.84129399 4291512896
0.0059650317 -0.78021646 0.841322 4291512896
0.0059650498 -0.78012145 0.84107792 4291512896
0.0059650582 -0.78005433 0.84102476 4291512896
0.0059650508 -0.78021735 0.8407917 4291512896
0.0059650415 -0.78041226 0.84052688 4291512896
0.0059650461 -0.78040534 0.84042788 4291512896
0.0059650475 -0.78044093 0.84029359 4291512896
0.0059650396 -0.7806111 0.84004635 4291512896
0.005965048 -0.78054756 0.83998966 4291512896
0.0059650592 -0.78044152 0.83996826 4291512896
0.0059650657 -0.7803992 0.83989751 4291512896
0.0059650675 -0.78042418 0.83977383 4291512896
0.0059650731 -0.78039956 0.83968538 4291512896
0.0059650787 -0.78037852 0.83959341 4291512896
0.0059650806 -0.78040344 0.83946973 4291512896
0.0059650894 -0.78032929 0.83942366 4291512896
0.0059650969 -0.78027636 0.83935636 4291512896
0.0059651043 -0.78021991 0.83929968 4291512896
0.0059651178 -0.78008199 0.83930302 4291512896
0.0059651146 -0.78018838 0.83911228 4291512896
0.0059650876 -0.78064531 0.83862865 4291512896
0.0059650708 -0.78095353 0.83827209 4291512896
0.0059650787 -0.7808935 0.83821189 4291512896
0.0059650866 -0.78083354 0.83815169 4291512896
0.0059650899 -0.78084075 0.83803856 4291512896
0.0059651071 -0.78064269 0.83809483 4291512896
0.0059651146 -0.78058976 0.83803463 4291512896
0.0059651146 -0.78064656 0.83787912 4291512896
0.0059651248 -0.7805512 0.83784717 4291512896
0.0059651332 -0.78048408 0.83779401 4291512896
0.0059651388 -0.78045952 0.83770555 4291512896
0.0059651379 -0.78053051 0.83754307 4291512896
0.0059651402 -0.78055549 0.8374123 4291512896
0.0059651458 -0.78052729 0.83732742 4291512896
0.0059651518 -0.78049916 0.83724248 4291512896
0.0059651462 -0.78063744 0.83701998 4291512896
0.0059651528 -0.78060222 0.83694214 4291512896
0.005965156 -0.78060949 0.83682901 4291512896
0.0059651602 -0.78060615 0.83671939 4291512896
0.0059651593 -0.78068066 0.83655339 4291512896
0.0059651555 -0.78079063 0.83635205 4291512896
0.0059651579 -0.78081912 0.8362177 4291512896
0.0059651635 -0.78079098 0.83613282 4291512896
0.0059651691 -0.78076994 0.83604085 4291512896
0.0059651751 -0.78073472 0.83596301 4291512896
0.0059651807 -0.7807101 0.83587462 4291512896
0.0059651821 -0.78075278 0.8357262 4291512896
0.0059651788 -0.78085566 0.83553189 4291512896
0.0059651779 -0.78093374 0.83535528 4291512896
0.0059651793 -0.78096581 0.83522451 4291512896
0.0059651867 -0.78091997 0.83515018 4291512896
0.0059651923 -0.78089535 0.83506173 4291512896
0.0059651942 -0.78092742 0.83492392 4291512896
0.0059651937 -0.7809878 0.8347649 4291512896
0.0059651923 -0.78107291 0.8345812 4291512896
0.0059651975 -0.78105897 0.83448219 4291512896
0.0059652086 -0.78094941 0.83446431 4291512896
0.0059652189 -0.78085047 0.83443588 4291512896
0.0059652217 -0.78087187 0.83430862 4291512896
0.0059652179 -0.78098893 0.83410025 4291512896
0.0059652179 -0.78104573 0.83394474 4291512896
0.0059652203 -0.78106719 0.83381754 4291512896
0.0059652282 -0.78101426 0.83375025 4291512896
0.0059652482 -0.78077012 0.83384532 4291512896
0.0059652566 -0.78069949 0.83379567 4291512896
0.0059652482 -0.78088737 0.83352375 4291512896
0.0059652478 -0.78095484 0.83335769 4291512896
0.0059652543 -0.78091961 0.83327985 4291512896
0.0059652627 -0.7808525 0.83321965 4291512896
0.0059652659 -0.78086686 0.83309948 4291512896
0.0059652659 -0.78092372 0.83294398 4291512896
0.0059652617 -0.78104782 0.83272856 4291512896
0.0059652645 -0.7810657 0.83259773 4291512896
0.0059652734 -0.78099155 0.83255166 4291512896
0.0059652817 -0.78092444 0.83249855 4291512896
0.0059652766 -0.7810663 0.83226544 4291512896
0.0059652575 -0.78141344 0.83186293 4291512896
0.0059652608 -0.78142428 0.83173925 4291512896
0.0059652836 -0.78114122 0.83186603 4291512896
0.0059652906 -0.7810989 0.83179522 4291512896
0.0059652813 -0.78129739 0.83151275 4291512896
0.0059652803 -0.78137547 0.83133608 4291512896
0.0059652808 -0.78142524 0.83118063 4291512896
0.0059652845 -0.78143251 0.83106041 4291512896
0.0059652887 -0.78142911 0.83095789 4291512896
0.0059653018 -0.78129125 0.83096117 4291512896
0.0059653046 -0.7813127 0.83083397 4291512896
0.0059653032 -0.7813943 0.83064669 4291512896
0.0059653074 -0.78139448 0.83053356 4291512896
0.0059653153 -0.78133452 0.83047336 4291512896
0.0059653269 -0.78121787 0.83046257 4291512896
0.0059653348 -0.78116137 0.8303988 4291512896
0.0059653288 -0.78131735 0.83015162 4291512896
0.0059653274 -0.78139544 0.82997495 4291512896
0.0059653381 -0.78129297 0.82995003 4291512896
0.0059653334 -0.78142768 0.82972395 4291512896
0.0059653339 -0.78147745 0.82956851 4291512896
0.0059653502 -0.78129357 0.82961065 4291512896
0.0059653516 -0.78133976 0.82945865 4291512896
0.0059653413 -0.78155237 0.82916909 4291512896
0.0059653418 -0.78160214 0.82902068 4291512896
0.0059653344 -0.78177935 0.82875937 4291512896
0.0059653423 -0.78171939 0.82869208 4291512896
0.0059653549 -0.78159213 0.8286919 4291512896
0.0059653437 -0.78206396 0.82773453 4291512896
0.005965367 -0.78177381 0.82786137 4291512896
0.0059653753 -0.78170675 0.8278082 4291512896
0.005965414 -0.78118646 0.82813615 4291512896
0.0059653972 -0.78156573 0.82758874 4291512896
0.0059654019 -0.78155529 0.82748622 4291512896
0.0059654126 -0.78145278 0.8274613 4291512896
0.0059654196 -0.78140694 0.82738698 4291512896
0.0059654205 -0.78164142 0.82673681 4291512896
0.0059654261 -0.78161681 0.82664132 4291512896
0.0059654322 -0.78159225 0.82654583 4291512896
0.0059654755 -0.78124619 0.82627654 4291512896
0.0059654294 -0.78200763 0.82551062 4291512896
0.005965434 -0.78200078 0.82540452 4291512896
0.0059654671 -0.78168267 0.8253333 4291512896
0.0059654722 -0.78167224 0.82522362 4291512896
0.0059654764 -0.78166538 0.82511759 4291512896
0.0059654913 -0.78150624 0.82514209 4291512896
0.0059655001 -0.78142852 0.82509243 4291512896
0.0059655039 -0.78143579 0.82497221 4291512896
0.0059655039 -0.78149974 0.82480264 4291512896
0.0059654908 -0.78176194 0.82446367 4291512896
0.0059654936 -0.78178692 0.8243258 4291512896
0.0059655057 -0.78166318 0.82431501 4291512896
0.0059655327 -0.7813164 0.82449824 4291512896
0.0059655439 -0.78120685 0.82448041 4291512896
0.0059655462 -0.78123534 0.82433903 4291512896
0.0059655504 -0.78123558 0.8242259 4291512896
0.0059655313 -0.78159338 0.82379872 4291512896
0.0059655411 -0.78150153 0.82376319 4291512896
0.0059655523 -0.78139549 0.82374179 4291512896
0.0059655043 -0.78219587 0.82292998 4291512896
0.0059655383 -0.78180325 0.82303894 4291512896
0.005965549 -0.78176469 0.82284439 4291512896
0.0059655481 -0.78183925 0.8226642 4291512896
0.0059655481 -0.78190672 0.82249111 4291512896
0.0059655528 -0.78189987 0.82237792 4291512896
0.0059655639 -0.78179383 0.82234949 4291512896
0.0059655677 -0.7818011 0.82222927 4291512896
0.0059655709 -0.78181547 0.82210201 4291512896
0.005965576 -0.78179795 0.82199949 4291512896
0.0059655849 -0.78173089 0.82194632 4291512896
0.0059656082 -0.78143722 0.82208371 4291512896
0.0059655737 -0.78202873 0.82145184 4291512896
0.0059655877 -0.7818802 0.82146573 4291512896
0.005965583 -0.78201497 0.82122552 4291512896
0.0059655742 -0.78222054 0.82092893 4291512896
0.0059655844 -0.78212863 0.82089341 4291512896
0.0059655984 -0.78197658 0.82091081 4291512896
0.0059656054 -0.78193432 0.82083297 4291512896
0.005965611 -0.7819097 0.82073748 4291512896
0.0059656161 -0.78189927 0.82062787 4291512896
0.0059656235 -0.7818464 0.82055348 4291512896
0.0059656193 -0.78197408 0.82032746 4291512896
0.0059656189 -0.78205216 0.82013667 4291512896
0.0059656273 -0.78198862 0.82007998 4291512896
0.005965624 -0.78210568 0.81985742 4291512896
0.0059656361 -0.78198546 0.81984311 4291512896
0.0059656277 -0.78218043 0.81954998 4291512896
0.0059656296 -0.7822125 0.81940508 4291512896
0.0059656473 -0.78201085 0.81946486 4291512896
0.0059656436 -0.78226644 0.81888545 4291512896
0.0059656547 -0.78222078 0.8186909 4291512896
0.0059656627 -0.78216791 0.81861657 4291512896
0.0059656673 -0.78216457 0.81849992 4291512896
0.005965672 -0.78215766 0.81838673 4291512896
0.0059656641 -0.78234553 0.81810069 4291512896
0.005965658 -0.78257257 0.81766266 4291512896
0.0059656729 -0.78240991 0.81768364 4291512896
0.005965685 -0.78228259 0.8176834 4291512896
0.005965692 -0.78224742 0.81759143 4291512896
0.0059656994 -0.7821945 0.81752414 4291512896
0.005965698 -0.78228325 0.81732279 4291512896
0.0059657008 -0.78230822 0.81717783 4291512896
0.0059657181 -0.78210658 0.81724471 4291512896
0.0059657423 -0.78213263 0.81649876 4291512896
0.0059657618 -0.78189909 0.81659025 4291512896
0.0059657735 -0.78198844 0.81602824 4291512896
0.0059657758 -0.78202051 0.81587631 4291512896
0.0059658629 -0.78209215 0.81326365 4291512896
0.0059658228 -0.78286451 0.81231034 4291512896
0.0059658294 -0.78283286 0.81221485 4291512896
0.0059659071 -0.7825169 0.81090617 4291512896
0.0059663998 -0.78516859 0.79014999 4291512896
0.0059664128 -0.78503072 0.79015332 4291512896
0.0059664873 -0.7846933 0.78899306 4291512896
0.0059664785 -0.78516883 0.78796148 4291512896
0.0059666377 -0.78502005 0.7839449 4291512896
0.0059666298 -0.78524345 0.78357404 4291512896
0.0059666312 -0.78530037 0.78337616 4291512896
0.005966635 -0.78532892 0.78320646 4291512896
0.0059666429 -0.78528315 0.78311092 4291512896
0.005966655 -0.78516293 0.78309661 4291512896
0.0059666787 -0.78501493 0.78282762 4291512896
0.005966661 -0.78609735 0.7804147 4291512896
0.0059666676 -0.78607988 0.7802909 4291512896
0.0059666708 -0.78610849 0.78011423 4291512896
0.0059667197 -0.78562778 0.78005683 4291512896
0.0059667067 -0.78620255 0.7788769 4291512896
0.0059667821 -0.78543895 0.77882612 4291512896
0.0059667272 -0.78674334 0.77686262 4291512896
0.0059667397 -0.78661966 0.77684468 4291512896
0.0059667528 -0.78648174 0.77684802 4291512896
0.0059667616 -0.78641826 0.77677011 4291512896
0.0059667709 -0.78634763 0.77670634 4291512896
0.0059667868 -0.78616369 0.77675551 4291512896
0.0059667733 -0.78648627 0.77626467 4291512896
0.0059667826 -0.78642279 0.77618676 4291512896
0.005966777 -0.78660011 0.77585471 4291512896
0.0059668184 -0.78598052 0.77637339 4291512896
0.0059668212 -0.78601974 0.77618605 4291512896
0.0059668096 -0.78631753 0.77571988 4291512896
0.0059667868 -0.78679949 0.775056 4291512896
0.0059667993 -0.78667575 0.77504522 4291512896
0.0059668086 -0.7866016 0.77497792 4291512896
0.0059668128 -0.78661603 0.77482235 4291512896
0.0059668059 -0.78682524 0.77445149 4291512896
0.0059668212 -0.78665191 0.77449012 4291512896
0.0059668585 -0.78628433 0.77444702 4291512896
0.0059668706 -0.7861641 0.77443272 4291512896
0.0059668259 -0.78703219 0.77334875 4291512896
0.0040088007 -0.77680928 0.84995747 4291512896
0.0040088007 -0.77713865 0.84960091 4291512896
0.0040088007 -0.7774539 0.84925848 4291512896
0.0040088003 -0.77765226 0.84900421 4291512896
0.0040087993 -0.77774447 0.84883469 4291512896
0.0040087984 -0.7778579 0.84864396 4291512896
0.004008797 -0.77791828 0.84849906 4291512896
0.0040087951 -0.77791846 0.84839302 4291512896
0.0040087844 -0.77893966 0.84657741 4291512896
0.004008777 -0.77850825 0.84661204 4291512896
0.004008776 -0.77856863 0.8464601 4291512896
0.0040087751 -0.77876699 0.8461988 4291512896
0.0040087732 -0.77875656 0.84610337 4291512896
0.0040087719 -0.77874964 0.8460114 4291512896
0.0040087723 -0.77912861 0.84561253 4291512896
0.0040087695 -0.77896947 0.84562993 4291512896
0.0040087672 -0.77886343 0.84560853 4291512896
0.0040087658 -0.77890253 0.84547782 4291512896
0.0040087644 -0.77892751 0.84535408 4291512896
0.004008763 -0.7789737 0.84521627 4291512896
0.0040087621 -0.77906942 0.84503615 4291512896
0.0040087597 -0.7790342 0.84495831 4291512896
0.0040087579 -0.77892107 0.84494394 4291512896
0.0040087556 -0.77884692 0.84489787 4291512896
0.0040087551 -0.77909845 0.84459776 4291512896
0.0040087197 -0.78006548 0.84131128 4291512896
0.0040087178 -0.78003377 0.84122992 4291512896
0.0040087164 -0.78011537 0.84105682 4291512896
0.0040087146 -0.78013325 0.84093308 4291512896
0.0040087132 -0.78013694 0.84082353 4291512896
0.0040087113 -0.78012651 0.84072804 4291512896
0.0040087095 -0.78010541 0.84064317 4291512896
0.0040087081 -0.78010559 0.84053707 4291512896
0.0040087071 -0.78064764 0.83988386 4291512896
0.0040087053 -0.78065485 0.83977073 4291512896
0.0040087029 -0.78046036 0.83982348 4291512896
0.0040087011 -0.78043926 0.83973151 4291512896
0.0040087001 -0.78064835 0.83945256 4291512896
0.0040086927 -0.78022045 0.83948368 4291512896
0.0040086918 -0.78037643 0.83925056 4291512896
0.0040086899 -0.78033054 0.83917624 4291512896
0.004008688 -0.78025639 0.83913016 4291512896
0.0040086871 -0.78040171 0.83890766 4291512896
0.0040086862 -0.78058952 0.83864987 4291512896
0.0040086848 -0.7806499 0.8384909 4291512896
0.0040086829 -0.78063238 0.83839542 4291512896
0.004008681 -0.78066796 0.83826113 4291512896
0.0040086792 -0.78056544 0.83823621 4291512896
0.0040086769 -0.780509 0.83817953 4291512896
0.0040086764 -0.78073221 0.83788645 4291512896
0.0040086745 -0.78069341 0.83781213 4291512896
0.0040086722 -0.78058386 0.8377943 4291512896
0.0040086703 -0.78058404 0.83768821 4291512896
0.0040086689 -0.78064793 0.83752567 4291512896
0.0040086675 -0.78071183 0.83736312 4291512896
0.0040086652 -0.78063768 0.83731705 4291512896
0.0040086634 -0.78052455 0.83730274 4291512896
0.0040086615 -0.78048223 0.83723199 4291512896
0.0040086596 -0.78046823 0.83713293 4291512896
0.0040086587 -0.78066313 0.83686811 4291512896
0.0040086578 -0.78084391 0.83660322 4291512896
0.0040086559 -0.78080511 0.8365289 4291512896
0.004008654 -0.78078759 0.83643341 4291512896
0.0040086522 -0.78078067 0.83633441 4291512896
0.0040086503 -0.78072774 0.83626717 4291512896
0.004008648 -0.7806536 0.8362211 4291512896
0.0040086461 -0.78060418 0.83615029 4291512896
0.0040086443 -0.78065395 0.83600187 4291512896
0.0040086429 -0.78067893 0.8358711 4291512896
0.0040086415 -0.78076053 0.83569092 4291512896
