# .PCD v0.7 - Point Cloud Data file format
VERSION 0.7
FIELDS x y z rgb
SIZE 4 4 4 4
TYPE F F F U
COUNT 1 1 1 1
WIDTH 1047
HEIGHT 1
VIEWPOINT 0 0 0 1 0 0 0
POINTS 1047
DATA ascii
0.029860266 -0.7821272 0.86080986 4289313917
0.029860282 -0.78204596 0.86077082 4289313917
0.029860331 -0.78181249 0.86084116 4289313917
0.029860329 -0.78181267 0.86074215 4289313917
0.029860338 -0.78176677 0.86068201 4289313917
0.02986042 -0.78137404 0.86086166 4289313917
0.029860426 -0.78134942 0.8607803 4289313917
0.029860452 -0.78122568 0.8607766 4289313917
0.029860493 -0.78102767 0.86081868 4289313917
0.029860502 -0.78098178 0.86075145 4289313917
0.029860523 -0.78088284 0.86073005 4289313917
0.029860646 -0.78028494 0.86097306 4289313917
0.029860647 -0.78027451 0.86087763 4289313917
0.029860646 -0.78028524 0.86077511 4289313917
0.029860623 -0.78038806 0.86060202 4289313917
0.02986064 -0.78030676 0.86057007 4289313917
0.02986072 -0.77992821 0.86074978 4289313917
0.029860746 -0.77979058 0.86056221 4289313917
0.029860767 -0.77969873 0.86053377 4289313917
0.029860748 -0.77978384 0.86037129 4289313917
0.029860796 -0.77954686 0.86044514 4289313917
0.029860927 -0.77892756 0.86080831 4289313917
0.029860936 -0.77887815 0.86075169 4289313917
0.029860938 -0.77886415 0.86066675 4289313917
0.029860949 -0.77881473 0.86060309 4289313917
0.029860958 -0.7787689 0.86054289 4289313917
0.029860971 -0.7787053 0.8604933 4289313917
0.029860983 -0.77864885 0.86043662 4289313917
0.029861003 -0.77854985 0.86041528 4289313917
0.029861037 -0.77838367 0.86043978 4289313917
0.029861106 -0.77805459 0.8605842 4289313917
0.029861178 -0.77770436 0.86074978 4289313917
0.029861169 -0.77774698 0.86062258 4289313917
0.029861152 -0.777825 0.86046714 4289313917
0.029861186 -0.77766937 0.86048812 4289313917
0.029861232 -0.77744299 0.86055845 4289313917
0.02986124 -0.77740067 0.86049479 4289313917
0.029861236 -0.77742207 0.86038166 4289313917
0.029861277 -0.77722049 0.86043435 4289313917
0.029861331 -0.77696222 0.86052942 4289313917
0.029861351 -0.77686328 0.86050808 4289313917
0.029861372 -0.77676433 0.86048669 4289313917
0.029861415 -0.7765556 0.86054647 4289313917
0.029861435 -0.77646023 0.86052155 4289313917
0.029861467 -0.77630812 0.86053902 4289313917
0.029861478 -0.77625519 0.86047882 4289313917
0.029861478 -0.77625185 0.86038333 4289313917
0.029861536 -0.77597588 0.86049604 4289313917
0.029861568 -0.77582026 0.86051702 4289313917
0.02986159 -0.7757107 0.86049914 4289313917
0.029861627 -0.77553385 0.86053425 4289313917
0.029861664 -0.7753464 0.86057991 4289313917
0.029861687 -0.77524388 0.86056209 4289313917
0.029861705 -0.77515554 0.86053008 4289313917
0.029861767 -0.77485842 0.86065692 4289313917
0.029861785 -0.77476668 0.86053658 4289313917
0.027903713 -0.79167813 0.86097586 4289313917
0.027903706 -0.79167831 0.86087692 4289313917
0.027903708 -0.79162538 0.86081672 4289313917
0.027903739 -0.791399 0.86087292 4289313917
0.027903801 -0.79101336 0.86104548 4289313917
0.027903803 -0.79096043 0.86098528 4289313917
0.027903818 -0.7908296 0.86097449 4289313917
0.027903832 -0.79070234 0.86096716 4289313917
0.027903909 -0.79006958 0.86092013 4289313917
0.027903924 -0.78994232 0.86091286 4289313917
0.027903922 -0.7899071 0.86084211 4289313917
0.027903983 -0.78947556 0.86094743 4289313917
0.027904082 -0.78862011 0.86086112 4289313917
0.027904123 -0.78835475 0.8609491 4289313917
0.027904222 -0.78767568 0.86113179 4289313917
0.027904207 -0.78771478 0.86100811 4289313917
0.027904199 -0.78770787 0.8609162 4289313917
0.027904209 -0.78762305 0.86088073 4289313917
0.027904205 -0.78759491 0.86080289 4289313917
0.027904199 -0.78758442 0.8607145 4289313917
0.02790433 -0.78655553 0.86075163 4289313917
0.027904429 -0.7858693 0.86093432 4289313917
0.027904427 -0.78583759 0.86086005 4289313917
0.027904412 -0.78588027 0.86073989 4289313917
0.027904423 -0.78578132 0.86071146 4289313917
0.027904453 -0.78556907 0.86076057 4289313917
0.027904555 -0.78490752 0.86102462 4289313917
0.027904542 -0.78493953 0.86090803 4289313917
0.027904537 -0.78492904 0.86081964 4289313917
0.027904551 -0.78480178 0.86081231 4289313917
0.027904579 -0.78461081 0.86085445 4289313917
0.027904578 -0.7845791 0.86078012 4289313917
0.027904578 -0.78452975 0.8607164 4289313917
0.027904602 -0.78435642 0.8607409 4289313917
0.02790465 -0.7840451 0.86086059 4289313917
0.027904715 -0.78354299 0.86092335 4289313917
0.027904723 -0.78338414 0.86074984 4289313917
0.027904728 -0.78330642 0.86070728 4289313917
0.027904777 -0.78295279 0.86076325 4289313917
0.027904797 -0.78279364 0.86078066 4289313917
0.02790481 -0.78268051 0.86076635 4289313917
0.027904822 -0.78257453 0.86074495 4289313917
0.027904831 -0.7824862 0.86071301 4289313917
0.027904822 -0.7824899 0.86061049 4289313917
0.027904809 -0.78252542 0.86049032 4289313917
0.027904846 -0.78227782 0.86056769 4289313917
0.027904863 -0.78213996 0.86057097 4289313917
0.027904874 -0.78203392 0.86054957 4289313917
0.027904913 -0.78177923 0.86063403 4289313917
0.027904956 -0.78149265 0.86074311 4289313917
0.027904987 -0.78127688 0.8607958 4289313917
0.027904999 -0.78117442 0.86077088 4289313917
0.027904993 -0.78116393 0.86068249 4289313917
0.027904993 -0.78112161 0.86061877 4289313917
0.02790501 -0.78098375 0.86062211 4289313917
0.027905034 -0.7808069 0.86065006 4289313917
0.027905071 -0.78055221 0.86073446 4289313917
0.027905067 -0.7805382 0.86064959 4289313917
0.027905071 -0.78047109 0.86060357 4289313917
0.027905118 -0.78017747 0.86071968 4289313917
0.027905136 -0.78003252 0.86073005 4289313917
0.027905151 -0.77990878 0.86072636 4289313917
0.027905172 -0.77974963 0.86074376 4289313917
0.02790517 -0.77971792 0.86066943 4289313917
0.027905172 -0.77967209 0.86060929 4289313917
0.027905185 -0.77955896 0.86059493 4289313917
0.027905174 -0.77957326 0.86048889 4289313917
0.027905174 -0.77953452 0.86042166 4289313917
0.027905189 -0.7794143 0.86041439 4289313917
0.027905222 -0.77917731 0.86048824 4289313917
0.027905269 -0.77888364 0.8606115 4289313917
0.027905278 -0.7787953 0.86057949 4289313917
0.02790527 -0.77878839 0.86048758 4289313917
0.02790527 -0.77874607 0.86042386 4289313917
0.027905278 -0.77866834 0.86038131 4289313917
0.027905298 -0.77851278 0.86040229 4289313917
0.027905349 -0.77819079 0.86054671 4289313917
0.027905375 -0.77801043 0.86057818 4289313917
0.027905416 -0.77773798 0.86068738 4289313917
0.027905405 -0.77776647 0.86056715 4289313917
0.027905408 -0.77769935 0.86052114 4289313917
0.027905406 -0.7776677 0.86044681 4289313917
0.02790541 -0.7776041 0.86039722 4289313917
0.027905492 -0.7770347 0.86053413 4289313917
0.027905514 -0.77686846 0.86055863 4289313917
0.027905526 -0.77676594 0.86054075 4289313917
0.027905526 -0.77672011 0.86048055 4289313917
0.027905531 -0.77665657 0.86043096 4289313917
0.027905542 -0.77655405 0.86041313 4289313917
0.027905572 -0.7763418 0.86046934 4289313917
0.027905598 -0.77615792 0.86051142 4289313917
0.027905604 -0.7760908 0.86046541 4289313917
0.027905617 -0.77597064 0.86045808 4289313917
0.027905632 -0.7758469 0.86045438 4289313917
0.02790566 -0.77565938 0.86050004 4289313917
0.027905682 -0.77548969 0.86052799 4289313917
0.02790571 -0.77529866 0.86057717 4289313917
0.027905732 -0.77513951 0.86060166 4289313917
0.027905732 -0.77509719 0.86053795 4289313917
0.027905745 -0.77498055 0.86052716 4289313917
0.025993507 -0.79167712 0.86100727 4289313917
0.025993517 -0.79137647 0.86111635 4289313917
0.025993522 -0.79115361 0.86117607 4289313917
0.02599352 -0.79105115 0.86114407 4289313917
0.025993511 -0.79106188 0.86104155 4289313917
0.025993502 -0.79106915 0.8609426 4289313917
0.025993505 -0.79087466 0.86098111 4289313917
0.0259935 -0.79081112 0.86092442 4289313917
0.025993489 -0.79085374 0.86079723 4289313917
0.025993489 -0.79074419 0.8607794 4289313917
0.025993496 -0.79047179 0.86086726 4289313917
0.025993494 -0.79036576 0.86084586 4289313917
0.025993474 -0.79041564 0.86061972 4289313917
0.02599347 -0.79034853 0.86056656 4289313917
0.025993474 -0.79015052 0.86060864 4289313917
0.025993502 -0.78955948 0.86092228 4289313917
0.025993513 -0.78925526 0.86103487 4289313917
0.0259935 -0.7889303 0.86087167 4289313917
0.025993524 -0.78784436 0.86114204 4289313917
0.025993513 -0.78789765 0.86101127 4289313917
0.0259935 -0.78796506 0.86086643 4289313917
0.025993494 -0.78792983 0.86079568 4289313917
0.025993496 -0.7876187 0.86081636 4289313917
0.025993513 -0.78666377 0.86099148 4289313917
0.025993496 -0.78682679 0.86078668 4289313917
0.0259935 -0.78646958 0.86083913 4289313917
0.025993496 -0.78639185 0.86079657 4289313917
0.025993491 -0.78637081 0.86071873 4289313917
0.025993492 -0.7860561 0.86074293 4289313917
0.025993498 -0.78584033 0.86079562 4289313917
0.025993491 -0.78582281 0.86071426 4289313917
0.025993489 -0.78570974 0.86069286 4289313917
0.025993485 -0.78564614 0.86064321 4289313917
0.025993489 -0.78545517 0.86067826 4289313917
0.025993492 -0.7852394 0.86073089 4289313917
0.025993491 -0.78515106 0.86069894 4289313917
0.025993496 -0.78494591 0.86074805 4289313917
0.025993496 -0.7846489 0.8607617 4289313917
0.025993507 -0.7843588 0.86086726 4289313917
0.025993502 -0.78431648 0.86080354 4289313917
0.025993504 -0.78415388 0.86081743 4289313917
0.025993505 -0.78398061 0.86084187 4289313917
0.025993507 -0.78380728 0.86086631 4289313917
0.025993487 -0.783988 0.86064386 4289313917
0.025993487 -0.78387845 0.86062598 4289313917
0.025993496 -0.78359187 0.86073512 4289313917
0.025993502 -0.78282809 0.86079037 4289313917
0.025993498 -0.78277516 0.86073017 4289313917
0.025993483 -0.7828815 0.86056066 4289313917
0.0259935 -0.78246397 0.86075789 4289313917
0.025993509 -0.78218448 0.86085993 4289313917
0.025993494 -0.78229082 0.86069041 4289313917
0.025993487 -0.78226978 0.86060554 4289313917
0.025993481 -0.78222394 0.86054534 4289313917
0.025993474 -0.78223473 0.86044282 4289313917
0.025993466 -0.7821995 0.86037207 4289313917
0.025993479 -0.78187752 0.8605023 4289313917
0.025993509 -0.78126526 0.8608371 4289313917
0.0259935 -0.78128672 0.86072403 4289313917
0.025993496 -0.78121608 0.86068147 4289313917
0.025993491 -0.78114897 0.86062831 4289313917
0.025993502 -0.78085178 0.86074799 4289313917
0.025993504 -0.78068554 0.8607654 4289313917
0.025993502 -0.7805866 0.860744 4289313917
0.025993498 -0.78051603 0.86069441 4289313917
0.025993498 -0.78037459 0.86070126 4289313917
0.025993496 -0.78028268 0.86067277 4289313917
0.025993502 -0.78008109 0.86072546 4289313917
0.025993491 -0.7801131 0.86060178 4289313917
0.025993491 -0.77999645 0.86059099 4289313917
0.025993494 -0.77980548 0.86064011 4289313917
0.025993487 -0.77978438 0.86055523 4289313917
0.025993483 -0.77971023 0.86051625 4289313917
0.025993513 -0.77914041 0.86083698 4289313917
0.025993509 -0.77906626 0.86079794 4289313917
0.025993496 -0.77913725 0.86064959 4289313917
0.025993492 -0.77908075 0.8605929 4289313917
0.025993487 -0.77901363 0.86054683 4289313917
0.025993485 -0.77892178 0.8605184 4289313917
0.025993485 -0.77878386 0.86052167 4289313917
0.025993487 -0.77864951 0.86052144 4289313917
0.025993487 -0.77852577 0.86051768 4289313917
0.025993494 -0.77828526 0.86060214 4289313917
0.025993496 -0.77811903 0.86062658 4289313917
0.025993494 -0.77801299 0.86061227 4289313917
0.025993496 -0.77786803 0.86062258 4289313917
0.025993494 -0.77775842 0.86060476 4289313917
0.025993492 -0.77766299 0.86057985 4289313917
0.025993492 -0.77754283 0.86057258 4289313917
0.025993491 -0.77745098 0.86054409 4289313917
0.025993483 -0.77742988 0.8604663 4289313917
0.025993479 -0.77736276 0.86042023 4289313917
0.025993478 -0.77725321 0.86040235 4289313917
0.025993478 -0.77714366 0.86038446 4289313917
0.025993476 -0.77703404 0.86037368 4289313917
0.02599347 -0.77700233 0.86029941 4289313917
0.025993472 -0.77682906 0.86033088 4289313917
0.025993474 -0.7766735 0.8603518 4289313917
0.025993494 -0.7762453 0.86057383 4289313917
0.025993487 -0.77624542 0.86047482 4289313917
0.025993479 -0.77621728 0.86040407 4289313917
0.025993485 -0.77602273 0.86044967 4289313917
0.025993489 -0.77582467 0.86050594 4289313917
0.025993489 -0.77571863 0.86048454 4289313917
0.025993485 -0.7756409 0.86044902 4289313917
0.025993489 -0.77546054 0.86048764 4289313917
0.025993498 -0.77519166 0.8605932 4289313917
0.025993496 -0.77509272 0.8605718 4289313917
0.025993498 -0.7749548 0.86057514 4289313917
0.025993494 -0.77475691 0.86053234 4289313917
0.023887184 -0.79154426 0.86106092 4289313917
0.023887189 -0.79146671 0.86092645 4289313917
0.02388721 -0.79134303 0.86090857 4289313917
0.023887228 -0.79123348 0.86089069 4289313917
0.023887219 -0.79124421 0.86078817 4289313917
0.02388721 -0.79125148 0.86068213 4289313917
0.023887383 -0.79048353 0.86111569 4289313917
0.023887383 -0.79045892 0.86103433 4289313917
0.02388737 -0.79048032 0.8609212 4289313917
0.02388753 -0.7896176 0.86094099 4289313917
0.023887584 -0.78935587 0.86102539 4289313917
0.023887623 -0.78909791 0.86091536 4289313917
0.023887688 -0.7886669 0.86073083 4289313917
0.023887746 -0.78839099 0.86082226 4289313917
0.0238878 -0.78812921 0.86090666 4289313917
0.0238878 -0.78810459 0.86083239 4289313917
0.02388783 -0.78794903 0.86083919 4289313917
0.02388791 -0.7875458 0.86093044 4289313917
0.023888005 -0.78698736 0.86083049 4289313917
0.023888037 -0.78679299 0.86077714 4289313917
0.023888024 -0.78681797 0.86066049 4289313917
0.023888024 -0.78678977 0.86058265 4289313917
0.023888228 -0.78589088 0.86111146 4289313917
0.023888201 -0.78597599 0.86095607 4289313917
0.023888212 -0.78590178 0.86091 4289313917
0.023888243 -0.78573561 0.8609274 4289313917
0.023888247 -0.78568268 0.8608672 4289313917
0.023888243 -0.78567576 0.86078233 4289313917
0.023888187 -0.78588122 0.86054224 4289313917
0.023888269 -0.78550267 0.86070776 4289313917
0.02388831 -0.785294 0.86075336 4289313917
0.023888299 -0.78531182 0.8606509 4289313917
0.023888312 -0.78523058 0.86061186 4289313917
0.023888391 -0.78486258 0.86076683 4289313917
0.023888454 -0.78456897 0.8608759 4289313917
0.023888448 -0.78456205 0.86078393 4289313917
0.02388845 -0.78452331 0.8607167 4289313917
0.023888491 -0.78431815 0.86076587 4289313917
0.023888526 -0.7841413 0.86079389 4289313917
0.023888517 -0.78415209 0.86069137 4289313917
0.023888512 -0.78414518 0.8605994 4289313917
0.02388854 -0.78398961 0.86061329 4289313917
0.023888592 -0.78374553 0.86068714 4289313917
0.023888629 -0.78355098 0.8607257 4289313917
0.023888648 -0.78344142 0.86070782 4289313917
0.023888655 -0.7833814 0.86065471 4289313917
0.023888646 -0.78339577 0.86054868 4289313917
0.023888674 -0.78324372 0.86055899 4289313917
0.023888711 -0.78305978 0.86059403 4289313917
0.023888804 -0.78251195 0.86049765 4289313917
0.023888808 -0.78246605 0.86043751 4289313917
0.023888854 -0.78223264 0.86050069 4289313917
0.02388891 -0.78197086 0.86059219 4289313917
0.023888912 -0.78193206 0.86052495 4289313917
0.023888914 -0.78189325 0.86045772 4289313917
0.023888953 -0.78169525 0.8604998 4289313917
0.023888957 -0.78164935 0.86043257 4289313917
0.023888964 -0.78158939 0.8603794 4289313917
0.023889013 -0.78135586 0.86044973 4289313917
0.023889085 -0.78101623 0.86059767 4289313917
0.023889128 -0.78081107 0.86064684 4289313917
0.023889121 -0.78081125 0.86054784 4289313917
0.023889147 -0.78066981 0.86055464 4289313917
0.023889165 -0.78056377 0.86053324 4289313917
0.023889171 -0.78050733 0.86047661 4289313917
0.023889216 -0.78029156 0.86053634 4289313917
0.023889272 -0.7800262 0.86063135 4289313917
0.023889299 -0.77987415 0.86064875 4289313917
0.023889307 -0.77981418 0.86059564 4289313917
0.023889313 -0.77975768 0.86053896 4289313917
0.023889357 -0.77954543 0.86060226 4289313917
0.023889376 -0.77943236 0.86058795 4289313917
0.023889391 -0.77934402 0.86055595 4289313917
0.023889432 -0.77914238 0.86060864 4289313917
0.023889473 -0.77894074 0.86066133 4289313917
0.023889488 -0.77884889 0.8606329 4289313917
0.023889499 -0.77876765 0.86059391 4289313917
0.023889519 -0.77865452 0.86057955 4289313917
0.023889542 -0.77853078 0.8605758 4289313917
0.023889571 -0.77837515 0.86059678 4289313917
0.023889611 -0.77818418 0.86063886 4289313917
0.023889635 -0.77805334 0.86064219 4289313917
0.023889679 -0.77783048 0.86070895 4289313917
0.023889713 -0.77766782 0.86073697 4289313917
0.023889715 -0.77762198 0.86066973 4289313917
0.023889715 -0.77759737 0.86059546 4289313917
0.023889737 -0.77747363 0.86058462 4289313917
0.023889778 -0.77727199 0.8606444 4289313917
0.023889815 -0.77708459 0.86068296 4289313917
0.023889843 -0.77693605 0.86069685 4289313917
0.023889862 -0.77683002 0.86068255 4289313917
0.023889856 -0.77682662 0.86058706 4289313917
0.023889806 -0.77700025 0.86035752 4289313917
0.02388986 -0.77674907 0.86045259 4289313917
0.023889897 -0.77656162 0.86049825 4289313917
0.023889922 -0.77643085 0.86049449 4289313917
0.023889961 -0.7762363 0.86054718 4289313917
0.023889972 -0.77615857 0.86050463 4289313917
0.023889976 -0.77611625 0.86044091 4289313917
0.023889977 -0.77607745 0.86037368 4289313917
0.023890004 -0.7759431 0.86038053 4289313917
0.023890039 -0.77576274 0.86041909 4289313917
0.02389008 -0.77555758 0.8604753 4289313917
0.023890134 -0.77530992 0.86056685 4289313917
0.023890164 -0.77514726 0.86058778 4289313917
0.023890194 -0.77499872 0.8606087 4289313917
0.023890192 -0.77497768 0.86052382 4289313917
0.023890199 -0.77491057 0.86047775 4289313917
0.023890229 -0.77475852 0.86049521 4289313917
0.023890277 -0.77453208 0.86057258 4289313917
0.023890296 -0.77441901 0.86055827 4289313917
0.023890316 -0.77430588 0.86054391 4289313917
0.023890324 -0.77424228 0.86050135 4289313917
0.023890324 -0.77421415 0.86042356 4289313917
0.02389032 -0.77420014 0.86033869 4289313917
0.02389033 -0.77413303 0.86029261 4289313917
0.023890343 -0.77404827 0.86025709 4289313917
0.023890361 -0.77394223 0.86024278 4289313917
0.023890382 -0.77382553 0.860232 4289313917
0.023890378 -0.77381158 0.86014712 4289313917
0.023890357 -0.77386838 0.8600058 4289313917
0.02389035 -0.77386856 0.85990679 4289313917
0.023890359 -0.77379787 0.85986423 4289313917
0.023890378 -0.77368832 0.85985345 4289313917
0.02389038 -0.77364957 0.85978621 4289313917
0.023890382 -0.77361429 0.8597154 4289313917
0.023890406 -0.77348346 0.85971874 4289313917
0.023890436 -0.7733314 0.8597362 4289313917
0.023890447 -0.77325368 0.85970068 4289313917
0.023890449 -0.77321845 0.85962993 4289313917
0.023890458 -0.77314782 0.85958737 4289313917
0.02389046 -0.77310908 0.85952014 4289313917
0.023890451 -0.77311629 0.8594141 4289313917
0.023890454 -0.77307397 0.85935038 4289313917
0.023890471 -0.77297503 0.85932899 4289313917
0.023890486 -0.77288318 0.85930055 4289313917
0.023890505 -0.77276999 0.85929328 4289313917
0.021931719 -0.7917257 0.86098421 4289313917
0.021931754 -0.791471 0.86106157 4289313917
0.021931767 -0.79135084 0.86104721 4289313917
0.021931795 -0.7910471 0.86086988 4289313917
0.021931807 -0.79094106 0.86084145 4289313917
0.021931816 -0.79082459 0.8607316 4289313917
0.021931831 -0.79069024 0.86072427 4289313917
0.021931851 -0.79053468 0.86073816 4289313917
0.021931849 -0.79051358 0.86065328 4289313917
0.021931933 -0.78994739 0.86094928 4289313917
0.021931969 -0.7896927 0.86102664 4289313917
0.021931982 -0.78957605 0.86100876 4289313917
0.021931982 -0.78954434 0.86093444 4289313917
0.021931993 -0.78944188 0.86090952 4289313917
0.021932026 -0.7892049 0.86097628 4289313917
0.021932062 -0.7889114 0.86098635 4289313917
0.021932067 -0.78884786 0.86093676 4289313917
0.021932088 -0.7886852 0.86095065 4289313917
0.021932065 -0.78875637 0.86071032 4289313917
0.021932146 -0.78815508 0.86083657 4289313917
0.021932138 -0.78816938 0.86073053 4289313917
0.02193217 -0.78794658 0.86079025 4289313917
0.021932228 -0.78754318 0.86097342 4289313917
0.021932233 -0.78747964 0.86091673 4289313917
0.021932248 -0.78735238 0.8609094 4289313917
0.021932278 -0.7871331 0.86096561 4289313917
0.021932283 -0.78705889 0.86091954 4289313917
0.021932289 -0.78699535 0.86086988 4289313917
0.021932291 -0.78695661 0.86080265 4289313917
0.021932289 -0.78692842 0.86072481 4289313917
0.021932298 -0.78684014 0.86068577 4289313917
0.021932334 -0.78658897 0.86076665 4289313917
0.021932393 -0.78613973 0.86088252 4289313917
0.02193241 -0.78597724 0.8608045 4289313917
0.021932434 -0.78578979 0.86083597 4289313917
0.02193241 -0.78591388 0.8606559 4289313917
0.021932393 -0.78598839 0.86051106 4289313917
0.021932418 -0.78580093 0.86054254 4289313917
0.021932473 -0.78541523 0.86071509 4289313917
0.021932496 -0.78524548 0.86073601 4289313917
0.021932507 -0.78514302 0.8607111 4289313917
0.021932499 -0.78515381 0.86060858 4289313917
0.021932499 -0.785115 0.86054134 4289313917
0.021932531 -0.78488511 0.86060107 4289313917
0.021932568 -0.78461623 0.8606925 4289313917
0.021932576 -0.7845456 0.86064994 4289313917
0.021932563 -0.78458828 0.86052275 4289313917
0.021932572 -0.78450346 0.86048728 4289313917
0.021932637 -0.78405762 0.86069864 4289313917
0.021932686 -0.7837286 0.86083591 4289313917
0.021932686 -0.7836898 0.86076868 4289313917
0.021932676 -0.78371829 0.86064851 4289313917
0.021932678 -0.78366888 0.86059189 4289313917
0.021932736 -0.78327262 0.86076796 4289313917
0.02193276 -0.78309929 0.86079949 4289313917
0.021932799 -0.78281277 0.86090153 4289313917
0.021932833 -0.7825793 0.86097181 4289313917
0.021932803 -0.78273523 0.86076701 4289313917
0.021932842 -0.78245574 0.86086202 4289313917
0.021932846 -0.78239924 0.86081243 4289313917
0.021932818 -0.78254455 0.86061114 4289313917
0.021932807 -0.78257304 0.86049807 4289313917
0.021932829 -0.78240329 0.86051893 4289313917
0.021932868 -0.7821238 0.86062104 4289313917
0.021932922 -0.78175586 0.86078298 4289313917
0.02193293 -0.78167814 0.86074042 4289313917
0.021932956 -0.78148359 0.86078608 4289313917
0.021932967 -0.78137755 0.86076468 4289313917
0.021932991 -0.78119719 0.86079621 4289313917
0.021933012 -0.78103805 0.86081356 4289313917
0.021933019 -0.78095329 0.86077809 4289313917
0.021933012 -0.78097117 0.86066848 4289313917
0.021933019 -0.78088993 0.86062944 4289313917
0.021933056 -0.78062457 0.86072445 4289313917
0.021933077 -0.78046542 0.86074185 4289313917
0.021933082 -0.78040189 0.86069226 4289313917
0.021933101 -0.78025335 0.86070615 4289313917
0.021933133 -0.78003049 0.86077297 4289313917
0.021933133 -0.77999884 0.86069864 4289313917
0.021933138 -0.77993172 0.86065257 4289313917
0.021933177 -0.77965575 0.86075813 4289313917
0.021933198 -0.77948958 0.86078262 4289313917
0.02193322 -0.77931625 0.86081409 4289313917
0.021933235 -0.7791996 0.86080331 4289313917
0.021933245 -0.77910775 0.86077487 4289313917
0.021933254 -0.77901584 0.86074644 4289313917
0.021933245 -0.77904081 0.8606298 4289313917
0.021933245 -0.77901268 0.86055195 4289313917
0.021933248 -0.77895266 0.86049885 4289313917
0.021933261 -0.77884662 0.86048448 4289313917
0.021933272 -0.77874416 0.86045957 4289313917
0.021933267 -0.77874076 0.86037117 4289313917
0.021933289 -0.77857453 0.86039561 4289313917
0.021933334 -0.77826321 0.86052942 4289313917
0.02193336 -0.77806866 0.86057508 4289313917
0.021933369 -0.77798033 0.86054307 4289313917
0.021933377 -0.77790612 0.86050409 4289313917
0.021933382 -0.77783549 0.86046153 4289313917
0.021933381 -0.77781087 0.86038017 4289313917
0.021933388 -0.77774024 0.86033762 4289313917
0.021933421 -0.77749258 0.86042202 4289313917
0.021933451 -0.77727681 0.86048883 4289313917
0.021933476 -0.77710354 0.86052036 4289313917
0.021933518 -0.77680278 0.86065066 4289313917
0.021933518 -0.77676755 0.86057985 4289313917
0.021933522 -0.77671105 0.86052322 4289313917
0.021933513 -0.77673602 0.86040658 4289313917
0.021933531 -0.77659106 0.86042398 4289313917
0.021933574 -0.77630091 0.86054373 4289313917
0.021933593 -0.77614534 0.86055756 4289313917
0.021933608 -0.77603221 0.86055028 4289313917
0.021933595 -0.77607489 0.86042309 4289313917
0.021933578 -0.77614582 0.8602677 4289313917
0.02193366 -0.77560437 0.8605814 4289313917
0.02193366 -0.77557266 0.86050707 4289313917
0.02193368 -0.77541351 0.86053157 4289313917
0.02193371 -0.77520484 0.86059129 4289313917
0.021933703 -0.77521563 0.86048877 4289313917
0.021933723 -0.77505648 0.86050618 4289313917
0.021933746 -0.77489376 0.86053419 4289313917
0.02193377 -0.77470636 0.86057979 4289313917
0.021933792 -0.77453303 0.86061132 4289313917
0.021933798 -0.77446592 0.86056525 4289313917
0.021933807 -0.77438468 0.8605333 4289313917
0.021933824 -0.77424675 0.86053658 4289313917
0.02193382 -0.7742328 0.8604517 4289313917
0.021933811 -0.77426833 0.86033159 4289313917
0.021933815 -0.77420479 0.86028194 4289313917
0.021933822 -0.77412355 0.8602429 4289313917
0.021933826 -0.77407771 0.86018276 4289313917
0.021933824 -0.7740531 0.86010844 4289313917
0.021933831 -0.77397889 0.86006236 4289313917
0.021933854 -0.77380204 0.8601045 4289313917
0.021933859 -0.77374202 0.86005133 4289313917
0.021933844 -0.7738024 0.85990649 4289313917
0.021933837 -0.77381676 0.85980046 4289313917
0.021933837 -0.77378148 0.85972971 4289313917
0.021933854 -0.77364713 0.8597365 4289313917
0.02193388 -0.77344906 0.85978568 4289313917
0.021933893 -0.77333593 0.8597784 4289313917
0.0219339 -0.7732653 0.85973585 4289313917
0.021933906 -0.77320176 0.85968626 4289313917
0.02193391 -0.77313817 0.85963666 4289313917
0.021933906 -0.77313483 0.85954118 4289313917
0.021933887 -0.77321291 0.85938573 4289313917
0.021933889 -0.77316701 0.85932559 4289313917
0.021933924 -0.77292645 0.85940999 4289313917
0.021933939 -0.77280271 0.85940623 4289313917
0.021933928 -0.77283472 0.85928965 4289313917
0.021933921 -0.77284908 0.85917652 4289313917
0.021933926 -0.77277845 0.85913396 4289313917
0.021933937 -0.77267951 0.85911256 4289313917
0.021933945 -0.77259821 0.85908061 4289313917
0.021933956 -0.77250278 0.8590557 4289313917
0.021933975 -0.77235782 0.85906607 4289313917
0.02193398 -0.77228719 0.85902351 4289313917
0.021933967 -0.77233338 0.8588928 4289313917
0.021933962 -0.77233356 0.8587938 4289313917
0.021933969 -0.77226645 0.85874772 4289313917
0.021933984 -0.7721321 0.85875452 4289313917
0.021934001 -0.77200127 0.85875785 4289313917
0.021934005 -0.77194482 0.85870826 4289313917
0.021934008 -0.77189189 0.85864806 4289313917
0.021934016 -0.77181417 0.85861254 4289313917
0.021934016 -0.77177894 0.85854179 4289313917
0.021934016 -0.77171552 0.85839319 4289313917
0.019856615 -0.79060036 0.86081499 4289313917
0.01985677 -0.78979397 0.86098331 4289313917
0.019856792 -0.78966671 0.86097604 4289313917
0.019856805 -0.78957838 0.86094403 4289313917
0.019856796 -0.78958565 0.860838 4289313917
0.019856755 -0.789738 0.86063671 4289313917
0.019856853 -0.78920752 0.8607136 4289313917
0.019856879 -0.78906262 0.86071688 4289313917
0.019856922 -0.78884327 0.86077303 4289313917
0.01985696 -0.78864878 0.86081159 4289313917
0.019857004 -0.7883907 0.86080056 4289313917
0.019857043 -0.7881856 0.86084259 4289313917
0.019857062 -0.78806537 0.86082828 4289313917
0.019857084 -0.78793812 0.86082095 4289313917
0.019857123 -0.78774005 0.86086303 4289313917
0.019857125 -0.78770131 0.8607958 4289313917
0.01985714 -0.78759879 0.86077088 4289313917
0.019857178 -0.78740782 0.86080593 4289313917
0.019857224 -0.78716725 0.8608762 4289313917
0.019857312 -0.786623 0.86076915 4289313917
0.019857423 -0.78598309 0.86073625 4289313917
0.019857446 -0.78584874 0.86072898 4289313917
0.019857511 -0.78553033 0.86085564 4289313917
0.019857528 -0.78542787 0.86083072 4289313917
0.019857552 -0.78528291 0.860834 4289313917
0.019857557 -0.78522998 0.8607738 4289313917
0.019857565 -0.78516638 0.86072421 4289313917
0.019857572 -0.78510642 0.8606711 4289313917
0.01985758 -0.78503931 0.86062503 4289313917
0.019857604 -0.78490496 0.8606177 4289313917
0.019857612 -0.7848379 0.86057162 4289313917
0.019857632 -0.78471416 0.86056077 4289313917
0.019857675 -0.78449839 0.86061347 4289313917
0.019857699 -0.78436404 0.86061323 4289313917
0.019857718 -0.78424388 0.86059886 4289313917
0.019857811 -0.78380507 0.86081022 4289313917
0.019857826 -0.78371322 0.86078179 4289313917
0.019857818 -0.78370982 0.86068636 4289313917
0.01985782 -0.78367108 0.86061907 4289313917
0.019857869 -0.783427 0.86069292 4289313917
0.019857906 -0.78323603 0.86072791 4289313917
0.019857924 -0.78311932 0.86071712 4289313917
0.019857936 -0.78303808 0.86067808 4289313917
0.019857965 -0.78288251 0.86069196 4289313917
0.019857969 -0.7828331 0.86062825 4289313917
0.019857993 -0.78269881 0.86062801 4289313917
0.019858025 -0.78252548 0.86065245 4289313917
0.019858042 -0.78242302 0.86063457 4289313917
0.019858059 -0.78231698 0.86061317 4289313917
0.019858239 -0.78142893 0.86094755 4289313917
0.019858213 -0.78151053 0.86079568 4289313917
0.019858191 -0.78158152 0.86064726 4289313917
0.019858189 -0.78156042 0.86056942 4289313917
0.019858198 -0.78148276 0.86052686 4289313917
0.019858262 -0.78114676 0.86057228 4289313917
0.01985828 -0.78103721 0.8605544 4289313917
0.019858282 -0.78099841 0.86048716 4289313917
0.019858304 -0.78086406 0.86048692 4289313917
0.019858366 -0.78056693 0.86059952 4289313917
0.019858364 -0.78054583 0.86052173 4289313917
0.019858364 -0.78051412 0.86044741 4289313917
0.019858375 -0.78042936 0.86041194 4289313917
0.019858422 -0.78019941 0.8604787 4289313917
0.019858457 -0.78001195 0.86052436 4289313917
0.019858468 -0.77993423 0.8604818 4289313917
0.019858479 -0.7798565 0.86044627 4289313917
0.0198585 -0.77973276 0.86043549 4289313917
0.019858556 -0.77946037 0.86054456 4289313917
0.01985861 -0.77919501 0.86063957 4289313917
0.01985863 -0.77907127 0.86063582 4289313917
0.019858647 -0.77897233 0.86061442 4289313917
0.019858656 -0.7789017 0.86056483 4289313917
0.019858651 -0.77889484 0.86047286 4289313917
0.019858694 -0.7786755 0.86054319 4289313917
0.019858783 -0.77825791 0.86075461 4289313917
0.019858802 -0.77814478 0.8607403 4289313917
0.019858805 -0.77809894 0.8606801 4289313917
0.019858794 -0.77811682 0.86057055 4289313917
0.019858804 -0.77804971 0.86052448 4289313917
0.01985883 -0.77786952 0.86046404 4289313917
0.01985877 -0.77809626 0.86019576 4289313917
0.01985891 -0.77743107 0.86049861 4289313917
0.019858927 -0.77732855 0.86048079 4289313917
0.019858971 -0.77710569 0.86054754 4289313917
0.019858977 -0.77704567 0.86049443 4289313917
0.019858984 -0.77698213 0.86044484 4289313917
0.019859016 -0.77681941 0.8604728 4289313917
0.019859053 -0.77662492 0.86051846 4289313917
0.019859096 -0.77640915 0.86058527 4289313917
0.019859122 -0.77626771 0.86059207 4289313917
0.019859148 -0.77612627 0.86060596 4289313917
0.019859152 -0.77607334 0.86054575 4289313917
0.019859161 -0.77600271 0.8605032 4289313917
0.019859195 -0.77582586 0.86053824 4289313917
0.019859217 -0.77569854 0.86053801 4289313917
0.017999716 -0.79116619 0.86085445 4289313917
0.017999714 -0.79081291 0.86071241 4289313917
0.017999711 -0.79050863 0.86082506 4289313917
0.017999709 -0.79028934 0.86088127 4289313917
0.017999707 -0.79011607 0.86090577 4289313917
0.017999705 -0.7899605 0.86091256 4289313917
0.017999705 -0.78985095 0.86089468 4289313917
0.017999699 -0.78934526 0.86095393 4289313917
0.017999699 -0.78927106 0.86090785 4289313917
0.017999699 -0.78929603 0.86079121 4289313917
0.017999703 -0.78952271 0.86053705 4289313917
0.01799969 -0.78819662 0.86068684 4289313917
0.017999684 -0.78763449 0.86069655 4289313917
0.017999684 -0.78750718 0.86068219 4289313917
0.017999684 -0.78745073 0.86062551 4289313917
0.017999684 -0.78742969 0.86054766 4289313917
0.017999684 -0.7874369 0.86044163 4289313917
0.017999684 -0.78730965 0.86043435 4289313917
0.017999684 -0.78726375 0.86037421 4289313917
0.017999677 -0.78680021 0.86059618 4289313917
0.017999671 -0.78634733 0.86081457 4289313917
0.017999671 -0.78624839 0.86078614 4289313917
0.017999671 -0.78617424 0.86074007 4289313917
0.017999671 -0.78610003 0.86069399 4289313917
0.01799967 -0.78597635 0.86068314 4289313917
0.01799967 -0.78587383 0.86065823 4289313917
0.017999668 -0.78578192 0.8606298 4289313917
0.017999668 -0.78567594 0.8606084 4289313917
0.017999662 -0.78530794 0.86076337 4289313917
0.01799966 -0.78507805 0.86083013 4289313917
0.01799966 -0.78500742 0.86078054 4289313917
0.017999662 -0.78517395 0.86057222 4289313917
0.017999662 -0.78510332 0.86052257 4289313917
0.017999662 -0.78504682 0.86046594 4289313917
0.01799966 -0.78487003 0.86049396 4289313917
0.017999655 -0.78441358 0.86071593 4289313917
0.017999655 -0.78440309 0.86062747 4289313917
0.017999655 -0.78432184 0.86058849 4289313917
0.017999653 -0.78408128 0.86065876 4289313917
0.017999651 -0.78396469 0.86064798 4289313917
0.017999651 -0.78391171 0.86058778 4289313917
0.017999651 -0.78384817 0.86053818 4289313917
0.017999649 -0.7836749 0.86056262 4289313917
0.017999647 -0.78349805 0.86059064 4289313917
0.017999649 -0.78352302 0.86047399 4289313917
0.017999649 -0.78349841 0.86039972 4289313917
0.017999642 -0.7828263 0.86058247 4289313917
0.01799964 -0.78276628 0.8605293 4289313917
0.01799964 -0.78271335 0.8604691 4289313917
0.017999636 -0.78238076 0.86061001 4289313917
0.017999636 -0.78234202 0.86054271 4289313917
0.017999634 -0.78214747 0.86058128 4289313917
0.017999632 -0.78189987 0.86065865 4289313917
0.01799963 -0.78173721 0.86067963 4289313917
0.017999627 -0.78148252 0.86076403 4289313917
0.017999629 -0.78150034 0.86065447 4289313917
0.017999629 -0.7815147 0.86054844 4289313917
0.017999629 -0.78143698 0.86050588 4289313917
0.017999629 -0.78138757 0.86044925 4289313917
0.017999627 -0.78128862 0.86042076 4289313917
0.017999627 -0.78115427 0.86042053 4289313917
0.01799963 -0.78143054 0.86013108 4289313917
0.017999616 -0.78035104 0.86080456 4289313917
0.017999616 -0.78028399 0.86075145 4289313917
0.017999623 -0.78074783 0.86032438 4289313917
0.017999619 -0.78048253 0.86041939 4289313917
0.017999619 -0.78033757 0.86042273 4289313917
0.017999616 -0.78009701 0.86050719 4289313917
0.017999614 -0.77995908 0.86051047 4289313917
0.017999616 -0.77998406 0.86039382 4289313917
0.017999616 -0.77991343 0.86035132 4289313917
0.017999614 -0.77980739 0.86032993 4289313917
0.017999612 -0.77962703 0.86036849 4289313917
0.01799961 -0.77943957 0.86040705 4289313917
0.01799961 -0.77936894 0.86036456 4289313917
0.017999608 -0.77921689 0.86038196 4289313917
0.017999606 -0.77896571 0.86046994 4289313917
0.017999604 -0.77884907 0.86045909 4289313917
0.017999606 -0.77886337 0.86035305 4289313917
0.017999604 -0.77876794 0.8603282 4289313917
0.017999602 -0.77854156 0.86039847 4289313917
0.017999601 -0.77844614 0.86036652 4289313917
0.017999601 -0.7784003 0.86030638 4289313917
0.017999601 -0.77829778 0.8602885 4289313917
0.017999599 -0.77811742 0.86032706 4289313917
0.017999595 -0.77777773 0.8604821 4289313917
0.017999593 -0.77770001 0.86043954 4289313917
0.017999595 -0.77769309 0.86034763 4289313917
0.017999595 -0.77762246 0.86030507 4289313917
0.017999593 -0.7775023 0.8602978 4289313917
0.017999591 -0.77735019 0.8603152 4289313917
0.017999589 -0.77719814 0.86033261 4289313917
0.017999591 -0.77718771 0.86024421 4289313917
0.017999589 -0.77709579 0.86021578 4289313917
0.017999586 -0.77676326 0.86036372 4289313917
0.017999586 -0.77668905 0.86032468 4289313917
0.017999584 -0.77657241 0.86031389 4289313917
0.017999582 -0.77633893 0.86039132 4289313917
0.01799958 -0.77615857 0.86042988 4289313917
0.017999578 -0.77602416 0.86043674 4289313917
0.017999578 -0.77601725 0.86034483 4289313917
0.017999578 -0.77587938 0.86034811 4289313917
0.017999575 -0.77568483 0.8604008 4289313917
0.017999575 -0.7755788 0.86038649 4289313917
0.017999573 -0.77546215 0.8603757 4289313917
0.017999573 -0.7753455 0.86036485 4289313917
0.017999571 -0.77520406 0.86037171 4289313917
0.017999569 -0.77493888 0.8603819 4289313917
0.015937202 -0.79130673 0.86080164 4289313917
0.015937207 -0.79117948 0.86078733 4289313917
0.015937222 -0.79095662 0.86084706 4289313917
0.015937224 -0.79087889 0.8608045 4289313917
0.015937222 -0.79086137 0.8607161 4289313917
0.015937272 -0.79005128 0.86098701 4289313917
0.015937274 -0.78998774 0.86093736 4289313917
0.01593728 -0.7898711 0.86091954 4289313917
0.015937272 -0.78993493 0.86077821 4289313917
0.015937272 -0.7898891 0.86071092 4289313917
0.015937282 -0.78972292 0.86072832 4289313917
0.015937299 -0.78944343 0.86083043 4289313917
0.01593734 -0.78879601 0.86108041 4289313917
0.01593734 -0.7887643 0.86100608 4289313917
0.015937377 -0.78816295 0.86123139 4289313917
0.015937349 -0.78843594 0.86075455 4289313917
0.015937362 -0.78821665 0.86081076 4289313917
0.015937367 -0.78810352 0.86078936 4289313917
0.015937367 -0.78805059 0.86072916 4289313917
0.015937366 -0.78804368 0.86063725 4289313917
0.015937366 -0.78800845 0.86056644 4289313917
0.015937397 -0.78748846 0.86073887 4289313917
0.01593741 -0.7872445 0.86071372 4289313917
0.015937423 -0.7870217 0.86076635 4289313917
0.015937416 -0.7870785 0.86063212 4289313917
0.015937433 -0.78680611 0.86072713 4289313917
0.015937444 -0.78661865 0.86075866 4289313917
0.015937444 -0.7865622 0.86070198 4289313917
0.015937455 -0.78638184 0.86073351 4289313917
0.015937466 -0.78617668 0.86077559 4289313917
0.015937472 -0.78606004 0.8607648 4289313917
0.015937475 -0.78597879 0.86071873 4289313917
0.015937474 -0.78595418 0.86064446 4289313917
0.015937481 -0.78582335 0.86064065 4289313917
0.015937489 -0.78568906 0.86063337 4289313917
0.015937494 -0.78556174 0.8606261 4289313917
0.015937511 -0.78528935 0.86072111 4289313917
0.015937524 -0.78507358 0.8607738 4289313917
0.015937528 -0.78498524 0.86074185 4289313917
0.015937531 -0.78487927 0.86072046 4289313917
0.015937539 -0.78475904 0.86070609 4289313917
0.015937541 -0.78468841 0.8606565 4289313917
0.015937543 -0.78461778 0.86061394 4289313917
0.015937546 -0.78453654 0.86057496 4289313917
0.015937554 -0.78437388 0.86058879 4289313917
0.015937559 -0.78425723 0.860578 4289313917
0.015937569 -0.78410518 0.86058837 4289313917
0.015937578 -0.7839213 0.86061639 4289313917
0.015937584 -0.78380817 0.86060202 4289313917
0.015937589 -0.78370565 0.86057711 4289313917
0.0159376 -0.7835182 0.86061573 4289313917
0.015937606 -0.78338742 0.86061198 4289313917
0.015937611 -0.78328496 0.86058706 4289313917
0.015937628 -0.7830019 0.86068559 4289313917
0.015937639 -0.78281093 0.86072767 4289313917
0.015937636 -0.78282523 0.86062163 4289313917
0.015937639 -0.78273338 0.86058611 4289313917
0.015937649 -0.78257424 0.86060357 4289313917
0.015937654 -0.78243995 0.86060333 4289313917
0.015937667 -0.7822383 0.86064893 4289313917
0.015937667 -0.78218186 0.86059231 4289313917
0.015937662 -0.7822386 0.86045808 4289313917
0.015937664 -0.78215384 0.86042255 4289313917
0.015937664 -0.78212917 0.86034828 4289313917
0.015937677 -0.78191698 0.8603974 4289313917
0.01593771 -0.78139681 0.86066884 4289313917
0.015937718 -0.78125185 0.86067212 4289313917
0.015937712 -0.78130156 0.86054492 4289313917
0.015937716 -0.78120613 0.86052001 4289313917
0.015937729 -0.78099036 0.8605727 4289313917
0.015937736 -0.78086662 0.86056894 4289313917
0.015937734 -0.78082788 0.86049461 4289313917
0.01593774 -0.78073603 0.86046618 4289313917
0.015937747 -0.78059459 0.86047304 4289313917
0.015937759 -0.78039294 0.86051869 4289313917
0.015937759 -0.78034359 0.86046201 4289313917
0.015937768 -0.78018093 0.86048299 4289313917
0.015937785 -0.77992618 0.86057448 4289313917
0.015937785 -0.77986974 0.8605178 4289313917
0.015937785 -0.77983451 0.86044705 4289313917
0.015937785 -0.77979213 0.86038333 4289313917
0.015937787 -0.7797392 0.86032313 4289313917
0.015937796 -0.77957302 0.86034763 4289313917
0.015937803 -0.77942449 0.86036152 4289313917
0.015937818 -0.77919811 0.86043185 4289313917
0.015937835 -0.77891505 0.86054456 4289313917
0.015937848 -0.77870637 0.86060435 4289313917
0.015937844 -0.77871716 0.86050183 4289313917
0.015937844 -0.77868897 0.86042398 4289313917
0.015937861 -0.77841306 0.8605296 4289313917
0.015937865 -0.77831411 0.8605082 4289313917
0.015937865 -0.77828592 0.86043036 4289313917
0.015937869 -0.77820116 0.8603949 4289313917
0.015937867 -0.77818358 0.86031353 4289313917
0.015937874 -0.7780351 0.86032742 4289313917
0.015937923 -0.77735561 0.86073649 4289313917
0.015937904 -0.77755046 0.86049283 4289313917
0.015937902 -0.77755767 0.86039388 4289313917
0.015937906 -0.77746934 0.86036187 4289313917
0.015937909 -0.77737039 0.86034048 4289313917
0.015937913 -0.77727139 0.86031914 4289313917
0.015937926 -0.7770592 0.86037534 4289313917
0.01593793 -0.77698499 0.86033636 4289313917
0.015937937 -0.77683651 0.86035025 4289313917
0.01593796 -0.77649683 0.86050528 4289313917
0.015937971 -0.77631295 0.86054736 4289313917
0.015937973 -0.77623516 0.8605119 4289313917
0.015937971 -0.77622122 0.86042702 4289313917
0.013953893 -0.79180688 0.86090153 4289313917
0.013953893 -0.79173273 0.86085546 4289313917
0.013953888 -0.79170102 0.86078113 4289313917
0.01395388 -0.79169762 0.86068565 4289313917
0.013953934 -0.79096526 0.86099911 4289313917
0.013953917 -0.79082787 0.86070544 4289313917
0.013953918 -0.79057348 0.86059183 4289313917
0.013953939 -0.79026926 0.86070448 4289313917
0.01395394 -0.79017383 0.86067253 4289313917
0.01395395 -0.78998995 0.86070049 4289313917
0.013953948 -0.78992641 0.86065084 4289313917
0.013953971 -0.78961509 0.86077052 4289313917
0.013953991 -0.78931081 0.86088318 4289313917
0.013953986 -0.78929329 0.86079472 4289313917
0.013953985 -0.78922266 0.86075222 4289313917
0.013954017 -0.78880161 0.86094594 4289313917
0.013954017 -0.78864264 0.86086434 4289313917
0.013954017 -0.78855431 0.8608253 4289313917
0.01395401 -0.78855097 0.86072987 4289313917
0.013954011 -0.78846258 0.86069793 4289313917
0.013954007 -0.78842735 0.86062711 4289313917
0.013954001 -0.78840274 0.86054575 4289313917
0.013954029 -0.7880277 0.86070776 4289313917
0.013954061 -0.78761017 0.86090505 4289313917
0.013954071 -0.78742629 0.86093301 4289313917
0.013954069 -0.78737336 0.86087281 4289313917
0.01395406 -0.78738058 0.86077386 4289313917
0.013954056 -0.78734183 0.86070663 4289313917
0.013954057 -0.78724641 0.86067462 4289313917
0.013954068 -0.78706253 0.86070257 4289313917
0.013954071 -0.78694588 0.86069179 4289313917
0.013954073 -0.78684694 0.86066335 4289313917
0.01395408 -0.78668779 0.86067367 4289313917
0.013954083 -0.78658533 0.86064875 4289313917
0.013954069 -0.78663856 0.86051804 4289313917
0.013954088 -0.78636265 0.86060947 4289313917
0.013954098 -0.78617167 0.86064452 4289313917
0.01395409 -0.7861895 0.860542 4289313917
0.013954097 -0.78602684 0.86055589 4289313917
0.013954123 -0.78568012 0.86070383 4289313917
0.013954122 -0.78561306 0.86065066 4289313917
0.013954117 -0.78557426 0.86058342 4289313917
0.013954154 -0.78494471 0.86073083 4289313917
0.013954148 -0.78493071 0.86064595 4289313917
0.013954148 -0.78485298 0.86060339 4289313917
0.01395415 -0.78474343 0.86058551 4289313917
0.013954153 -0.78463739 0.86056411 4289313917
0.013954164 -0.78444284 0.86060274 4289313917
0.013954183 -0.78416693 0.86070126 4289313917
0.013954192 -0.78398657 0.8607257 4289313917
0.013954204 -0.7837885 0.86076778 4289313917
0.013954201 -0.78374267 0.86070758 4289313917
0.013954197 -0.78369325 0.86064386 4289313917
0.01395421 -0.783481 0.86070007 4289313917
0.013954216 -0.78333962 0.86069983 4289313917
0.013954206 -0.78336805 0.86058676 4289313917
0.013954195 -0.78340012 0.86047012 4289313917
0.013954208 -0.78318787 0.86051929 4289313917
0.013954236 -0.78280932 0.86069185 4289313917
0.013954234 -0.78275281 0.86063522 4289313917
0.013954233 -0.78268218 0.86058563 4289313917
0.013954232 -0.78262573 0.86053598 4289313917
0.013954225 -0.78261876 0.86044407 4289313917
0.013954225 -0.78253752 0.86040503 4289313917
0.013954245 -0.78224033 0.86051768 4289313917
0.013954248 -0.78213435 0.86049628 4289313917
0.013954258 -0.78195399 0.86052781 4289313917
0.013954259 -0.78186917 0.86049229 4289313917
0.013954245 -0.78192598 0.86035806 4289313917
0.013954249 -0.78180581 0.86034369 4289313917
0.013954271 -0.78150505 0.86045986 4289313917
0.013954257 -0.78157604 0.86031854 4289313917
0.013954308 -0.78088254 0.86061436 4289313917
0.013954314 -0.78073049 0.86062473 4289313917
0.013954314 -0.78065282 0.86058217 4289313917
0.013954298 -0.78075206 0.86041969 4289313917
0.0139543 -0.78064251 0.86040187 4289313917
0.013954303 -0.78053647 0.86038047 4289313917
0.013954304 -0.78043753 0.86035198 4289313917
0.013954311 -0.7802996 0.86035532 4289313917
0.013954325 -0.78007323 0.86042565 4289313917
0.013954326 -0.77999198 0.86038661 4289313917
0.013954327 -0.77989304 0.86036521 4289313917
0.013954345 -0.77963829 0.86045671 4289313917
0.013954348 -0.77936977 0.86036432 4289313917
0.013954372 -0.77905488 0.86050171 4289313917
0.013954366 -0.77903378 0.86041677 4289313917
0.013954366 -0.77895963 0.86037779 4289313917
0.013954371 -0.77882171 0.86038107 4289313917
0.013954376 -0.77870154 0.8603738 4289313917
0.013954386 -0.77852112 0.86041242 4289313917
0.013954398 -0.77832305 0.86046153 4289313917
0.013954401 -0.77822059 0.86044371 4289313917
0.0139544 -0.77814287 0.86040115 4289313917
0.013954407 -0.77800494 0.86041152 4289313917
0.013954422 -0.77776444 0.86048889 4289313917
0.013954423 -0.77767611 0.86045694 4289313917
0.013954436 -0.77747095 0.86051315 4289313917
0.013954432 -0.77744275 0.8604424 4289313917
0.013954445 -0.77722698 0.86050212 4289313917
0.013954449 -0.77711743 0.86049134 4289313917
0.013954452 -0.7770043 0.86047703 4289313917
0.013954449 -0.7769478 0.86042035 4289313917
0.013954435 -0.77701521 0.86027551 4289313917
0.013954433 -0.77696228 0.86021531 4289313917
0.013954442 -0.7767961 0.86024684 4289313917
0.013954461 -0.77653426 0.86034542 4289313917
0.013954458 -0.77647781 0.86028874 4289313917
0.01395446 -0.77638596 0.86026031 4289313917
0.013954472 -0.77618784 0.86031651 4289313917
0.013954485 -0.77598268 0.86037272 4289313917
0.01395449 -0.7758413 0.86037958 4289313917
0.013954501 -0.77566087 0.86041814 4289313917
0.01395452 -0.77508467 0.86037123 4289313917
0.013954529 -0.77492905 0.86039221 4289313917
0.0118655 -0.7911908 0.86117566 4289313917
0.011865448 -0.79140335 0.86093563 4289313917
0.011865488 -0.79120177 0.86097413 4289313917
0.011865468 -0.79127622 0.86082929 4289313917
0.011865485 -0.79117727 0.86080086 4289313917
0.011865498 -0.79109955 0.8607583 4289313917
0.011865507 -0.79103601 0.86070168 4289313917
0.011865532 -0.79090166 0.86070144 4289313917
0.011865557 -0.79076731 0.86069417 4289313917
0.01186556 -0.7907356 0.86061984 4289313917
0.011865604 -0.79051989 0.86067253 4289313917
0.011865655 -0.7902652 0.8607499 4289313917
0.011865688 -0.79009897 0.8607673 4289313917
0.011865689 -0.79007083 0.86068946 4289313917
0.011865734 -0.78984797 0.86074924 4289313917
0.011865752 -0.78974903 0.86072081 4289313917
0.011865776 -0.78962177 0.86071348 4289313917
0.011865819 -0.789406 0.86076617 4289313917
0.011865828 -0.78934246 0.86070949 4289313917
0.011865841 -0.78926474 0.86066693 4289313917
0.011865873 -0.78910208 0.86068791 4289313917
0.011865913 -0.78890049 0.86072648 4289313917
0.011865926 -0.78882277 0.86068392 4289313917
0.011865931 -0.78878051 0.8606202 4289313917
0.011865941 -0.7887134 0.86056703 4289313917
0.011865948 -0.78866047 0.86050683 4289313917
0.011866027 -0.78828895 0.86067241 4289313917
0.011866044 -0.78819001 0.86064398 4289313917
0.011866055 -0.7881158 0.86059791 4289313917
0.011866099 -0.78790009 0.8606506 4289313917
0.011866173 -0.78754979 0.86079496 4289313917
0.011866194 -0.78743315 0.86078417 4289313917
0.011866193 -0.78741562 0.86069578 4289313917
0.011866221 -0.78727067 0.86069906 4289313917
0.011866255 -0.78709739 0.86072356 4289313917
0.011866271 -0.78700548 0.86069506 4289313917
0.011866286 -0.78691721 0.86065602 4289313917
0.011866297 -0.78685009 0.86061001 4289313917
0.011866302 -0.78680426 0.86054271 4289313917
0.011866322 -0.78669465 0.86052489 4289313917
0.011866368 -0.78646475 0.86058462 4289313917
0.011866393 -0.78633749 0.86057734 4289313917
0.011866387 -0.78634119 0.86048186 4289313917
0.011866405 -0.78624225 0.86045343 4289313917
0.011866485 -0.78586012 0.86062253 4289313917
0.01186651 -0.78572577 0.86061519 4289313917
0.011866556 -0.78549939 0.86067849 4289313917
0.011866601 -0.78527653 0.86073822 4289313917
0.011866622 -0.78516346 0.86071682 4289313917
0.01186663 -0.78510344 0.86066371 4289313917
0.011866617 -0.78514606 0.86054355 4289313917
0.011866624 -0.78509313 0.86048341 4289313917
