# .PCD v0.7 - Point Cloud Data file format
VERSION 0.7
FIELDS x y z rgb
SIZE 4 4 4 4
TYPE F F F U
COUNT 1 1 1 1
WIDTH 1024
HEIGHT 1
VIEWPOINT 0 0 0 1 0 0 0
POINTS 1024
DATA ascii
-0.010058959 -0.78279322 0.8601743 4286719801
-0.010058943 -0.78266597 0.86016697 4286719801
-0.010058932 -0.78255993 0.86014557 4286719801
-0.010058936 -0.7825247 0.86007482 4286719801
-0.010058938 -0.78248239 0.8600111 4286719801
-0.010058898 -0.7822454 0.86007786 4286719801
-0.010058844 -0.78194112 0.86019748 4286719801
-0.010058797 -0.78166521 0.86029601 4286719801
-0.01005879 -0.78158391 0.86025697 4286719801
-0.010058783 -0.78149557 0.86022496 4286719801
-0.010058771 -0.78138602 0.86020708 4286719801
-0.010058777 -0.78136498 0.8601293 4286719801
-0.010058772 -0.78128725 0.86008674 4286719801
-0.01005874 -0.78108561 0.86013234 4286719801
-0.010058723 -0.78095484 0.86012858 4286719801
-0.010058707 -0.78082401 0.86012477 4286719801
-0.010058694 -0.78071094 0.8601104 4286719801
-0.010058628 -0.7802512 0.86015201 4286719801
-0.010058617 -0.78014523 0.86013061 4286719801
-0.010058613 -0.7800675 0.86008805 4286719801
-0.010058598 -0.77994728 0.86008078 4286719801
-0.010058518 -0.77931803 0.86005843 4286719801
-0.010058485 -0.77911639 0.86011112 4286719801
-0.010058464 -0.77896786 0.86012495 4286719801
-0.010058445 -0.77882642 0.8601318 4286719801
-0.01005843 -0.77870625 0.86012447 4286719801
-0.010058411 -0.77856833 0.86012781 4286719801
-0.010058396 -0.77844816 0.86012048 4286719801
-0.010058375 -0.77829605 0.86013788 4286719801
-0.010058362 -0.77818298 0.86012352 4286719801
-0.010058349 -0.77807343 0.86010563 4286719801
-0.010058333 -0.77794969 0.86010194 4286719801
-0.010058335 -0.7779038 0.86004174 4286719801
-0.010058336 -0.77785796 0.85998154 4286719801
-0.010058319 -0.77772719 0.85997778 4286719801
-0.010058277 -0.77748656 0.86006218 4286719801
-0.010058245 -0.77728498 0.86011487 4286719801
-0.010058232 -0.77717537 0.86010402 4286719801
-0.010058237 -0.77714723 0.86002624 4286719801
-0.010058234 -0.7770766 0.85997659 4286719801
-0.010058212 -0.77692455 0.85999399 4286719801
-0.010058192 -0.77677959 0.8600114 4286719801
-0.010058161 -0.77658856 0.86005348 4286719801
-0.010058134 -0.77636236 0.8600319 4286719801
-0.010058116 -0.77622443 0.86003518 4286719801
-0.010058099 -0.77609718 0.86003494 4286719801
-0.010058086 -0.77598757 0.86002415 4286719801
-0.010058072 -0.77587092 0.86001331 4286719801
-0.010058045 -0.77569765 0.86004484 4286719801
-0.010058026 -0.77555263 0.86005515 4286719801
-0.010058015 -0.77545369 0.86003375 4286719801
-0.010058 -0.77532995 0.86003 4286719801
-0.010057996 -0.77526289 0.85998392 4286719801
-0.010057996 -0.77521348 0.8599273 4286719801
-0.010057978 -0.77507913 0.85992706 4286719801
-0.010057953 -0.77491289 0.85995853 4286719801
-0.010057911 -0.77466881 0.86004651 4286719801
-0.010057882 -0.77448839 0.86008507 4286719801
-0.010057876 -0.77440715 0.86005312 4286719801
-0.010057875 -0.7743507 0.85999644 4286719801
-0.010057868 -0.77426237 0.85996443 4286719801
-0.01005785 -0.77413154 0.85996777 4286719801
-0.010057623 -0.77021146 0.85752821 4286719801
-0.010057631 -0.77019751 0.85744333 4286719801
-0.01005764 -0.7701835 0.85735136 4286719801
-0.010057651 -0.7701872 0.85725594 4286719801
-0.010057665 -0.77019805 0.85714638 4286719801
-0.010057671 -0.77017343 0.85707206 4286719801
-0.010057668 -0.77010632 0.85702598 4286719801
-0.01005767 -0.77006048 0.85695875 4286719801
-0.01005768 -0.77006066 0.85686684 4286719801
-0.010057691 -0.77005023 0.85677135 4286719801
-0.010057699 -0.77003622 0.85668647 4286719801
-0.010057718 -0.77006829 0.85656279 4286719801
-0.010057745 -0.77013928 0.85640734 4286719801
-0.010057767 -0.77018899 0.85627306 4286719801
-0.010057769 -0.77014667 0.85620934 4286719801
-0.010057774 -0.77011853 0.85613149 4286719801
-0.010057812 -0.77023202 0.85594082 4286719801
-0.010057825 -0.77024281 0.8558383 4286719801
-0.010057826 -0.77019346 0.85577458 4286719801
-0.010057832 -0.77017236 0.85569674 4286719801
-0.010057833 -0.77012295 0.85563302 4286719801
-0.01005784 -0.77009839 0.85555166 4286719801
-0.010057856 -0.77012336 0.85543501 4286719801
-0.010057892 -0.77022976 0.85525137 4286719801
-0.010057912 -0.77027237 0.85512418 4286719801
-0.010057929 -0.77029026 0.85500753 4286719801
-0.010057953 -0.77035064 0.85486269 4286719801
-0.010058006 -0.77053493 0.85461551 4286719801
-0.011999981 -0.79059333 0.86047912 4286719801
-0.011999961 -0.79023963 0.86052799 4286719801
-0.011999959 -0.79013008 0.86051017 4286719801
-0.011999962 -0.79005593 0.86046404 4286719801
-0.011999971 -0.79003131 0.86038268 4286719801
-0.01199997 -0.78992885 0.86035776 4286719801
-0.011999977 -0.78988296 0.86029053 4286719801
-0.012000001 -0.78997874 0.86013156 4286719801
-0.011999979 -0.78970277 0.860223 4286719801
-0.011999938 -0.78927112 0.86042732 4286719801
-0.011999926 -0.78908008 0.86046237 4286719801
-0.011999927 -0.78898823 0.86042684 4286719801
-0.011999929 -0.78891408 0.86038077 4286719801
-0.011999934 -0.78885406 0.8603276 4286719801
-0.011999938 -0.78878343 0.86027801 4286719801
-0.011999931 -0.78864205 0.86028481 4286719801
-0.011999913 -0.78840148 0.86035514 4286719801
-0.011999907 -0.78824943 0.86036545 4286719801
-0.011999907 -0.78815049 0.86033702 4286719801
-0.011999901 -0.78800905 0.86033678 4286719801
-0.011999881 -0.78774726 0.86042118 4286719801
-0.011999873 -0.78757757 0.8604421 4286719801
-0.011999873 -0.78748566 0.86041361 4286719801
-0.011999879 -0.78743982 0.86034638 4286719801
-0.011999869 -0.78725946 0.86037791 4286719801
-0.011999856 -0.78705788 0.86041641 4286719801
-0.011999863 -0.78702265 0.86034566 4286719801
-0.011999869 -0.78696615 0.86028898 4286719801
-0.011999862 -0.78682476 0.86029583 4286719801
-0.011999866 -0.78675407 0.86024618 4286719801
-0.01199987 -0.7866835 0.86019659 4286719801
-0.011999837 -0.78632259 0.8603515 4286719801
-0.011999818 -0.78607851 0.86042535 4286719801
-0.011999815 -0.78595126 0.86041802 4286719801
-0.011999808 -0.78580272 0.86042488 4286719801
-0.011999807 -0.78569317 0.8603999 4286719801
-0.011999819 -0.78570044 0.86030096 4286719801
-0.011999828 -0.78566521 0.86023015 4286719801
-0.011999813 -0.78544945 0.86028284 4286719801
-0.011999805 -0.78529382 0.86029667 4286719801
-0.011999816 -0.78527987 0.86021179 4286719801
-0.011999823 -0.78524816 0.86013752 4286719801
-0.011999805 -0.78500056 0.86021489 4286719801
-0.01199978 -0.78471047 0.86032045 4286719801
-0.01199978 -0.78461146 0.86029196 4286719801
-0.011999779 -0.784509 0.86026704 4286719801
-0.011999767 -0.78431445 0.86030561 4286719801
-0.011999751 -0.78408104 0.86037588 4286719801
-0.011999746 -0.78395373 0.86036861 4286719801
-0.011999733 -0.78374505 0.86041421 4286719801
-0.011999726 -0.78360367 0.860421 4286719801
-0.011999746 -0.78366047 0.86028677 4286719801
-0.011999762 -0.78369248 0.86017019 4286719801
-0.011999764 -0.78362185 0.86012053 4286719801
-0.011999761 -0.78349459 0.86011326 4286719801
-0.011999741 -0.78324342 0.86019415 4286719801
-0.01199973 -0.78305596 0.86023271 4286719801
-0.011999724 -0.78291452 0.86023247 4286719801
-0.011999733 -0.78288287 0.86015815 4286719801
-0.011999739 -0.78284407 0.86009091 4286719801
-0.011999724 -0.78262478 0.86014712 4286719801
-0.011999716 -0.78246564 0.86016452 4286719801
-0.011999709 -0.78231007 0.86017835 4286719801
-0.011999705 -0.78218985 0.86017108 4286719801
-0.01199971 -0.7821334 0.86011446 4286719801
-0.011999705 -0.78199196 0.86011416 4286719801
-0.01199971 -0.78194255 0.86005753 4286719801
-0.011999707 -0.78181881 0.86004668 4286719801
-0.011999696 -0.78163844 0.86007822 4286719801
-0.01199969 -0.78148997 0.86008501 4286719801
-0.011999674 -0.7812742 0.86014473 4286719801
-0.011999668 -0.78112215 0.86015511 4286719801
-0.011999667 -0.78102672 0.86013019 4286719801
-0.011999656 -0.78083575 0.86016518 4286719801
-0.011999656 -0.78074741 0.86013323 4286719801
-0.011999656 -0.78065908 0.86010128 4286719801
-0.011999634 -0.78038317 0.86019975 4286719801
-0.011999627 -0.78022754 0.86021364 4286719801
-0.01199963 -0.780164 0.86016405 4286719801
-0.011999622 -0.78000486 0.86018145 4286719801
-0.011999595 -0.77969706 0.86031175 4286719801
-0.011999578 -0.77947778 0.86037499 4286719801
-0.011999589 -0.77947086 0.86028302 4286719801
-0.011999608 -0.77951699 0.8601523 4286719801
-0.011999613 -0.77946055 0.86009562 4286719801
-0.011999613 -0.77936512 0.86007077 4286719801
-0.011999615 -0.77929807 0.86002463 4286719801
-0.011999613 -0.77918136 0.86001384 4286719801
-0.0119996 -0.7789939 0.8600595 4286719801
-0.011999579 -0.77873921 0.86015099 4286719801
-0.011999549 -0.77841723 0.86028826 4286719801
-0.011999548 -0.77831829 0.86026692 4286719801
-0.011999565 -0.77835381 0.86014676 4286719801
-0.011999575 -0.77834338 0.86005837 4286719801
-0.011999574 -0.77823383 0.86004049 4286719801
-0.011999568 -0.77809238 0.86004728 4286719801
-0.011999567 -0.77799696 0.86002243 4286719801
-0.011999563 -0.77787322 0.86001867 4286719801
-0.011999549 -0.77767164 0.8600713 4286719801
-0.011999543 -0.77753019 0.86007816 4286719801
-0.011999543 -0.77743477 0.86005324 4286719801
-0.011999533 -0.77726501 0.86008126 4286719801
-0.011999525 -0.77711648 0.86009508 4286719801
-0.011999522 -0.77700692 0.8600843 4286719801
-0.011999526 -0.77693981 0.86003822 4286719801
-0.011999521 -0.77680904 0.86003447 4286719801
-0.011999515 -0.77666754 0.86004835 4286719801
-0.011999514 -0.77656507 0.86002344 4286719801
-0.011999512 -0.77646255 0.86000562 4286719801
-0.01199951 -0.77634948 0.85999125 4286719801
-0.011999507 -0.77622926 0.85998398 4286719801
-0.011999497 -0.77607012 0.86000842 4286719801
-0.011999487 -0.77590388 0.86004001 4286719801
-0.011999479 -0.77574831 0.86006093 4286719801
-0.011999466 -0.77555025 0.86011004 4286719801
-0.011999459 -0.77541584 0.8601169 4286719801
-0.011999467 -0.77538419 0.86004263 4286719801
-0.011999476 -0.77535599 0.85996479 4286719801
-0.01199947 -0.77522165 0.85997164 4286719801
-0.011999453 -0.77499527 0.86004198 4286719801
-0.011999447 -0.77485734 0.86005229 4286719801
-0.011999448 -0.77477258 0.86001682 4286719801
-0.01199944 -0.77463114 0.86003071 4286719801
-0.011999432 -0.77447551 0.86005163 4286719801
-0.011999434 -0.7743907 0.86001617 4286719801
-0.011999438 -0.77432716 0.85996652 4286719801
-0.01199944 -0.77425653 0.85992396 4286719801
-0.011999447 -0.77421421 0.85986024 4286719801
-0.011999439 -0.77405864 0.85988122 4286719801
-0.011999421 -0.77383929 0.85995156 4286719801
-0.011999413 -0.77368724 0.85996896 4286719801
-0.011999404 -0.77343267 0.85996848 4286719801
-0.011999596 -0.77012426 0.857449 4286719801
-0.011999612 -0.77006793 0.8573004 4286719801
-0.011999618 -0.77002209 0.85724026 4286719801
-0.011999629 -0.7700187 0.85714477 4286719801
-0.011999647 -0.77005428 0.85701752 4286719801
-0.011999652 -0.77000487 0.85696089 4286719801
-0.011999655 -0.7699272 0.85691833 4286719801
-0.01199966 -0.76987779 0.85686171 4286719801
-0.011999682 -0.76986039 0.85668135 4286719801
-0.011999702 -0.76992077 0.85653645 4286719801
-0.011999724 -0.76998818 0.85638458 4286719801
-0.011999741 -0.77002376 0.85625738 4286719801
-0.011999807 -0.76997173 0.85570925 4286719801
-0.011999823 -0.76999313 0.85558909 4286719801
-0.011999822 -0.76989418 0.85556769 4286719801
-0.011999831 -0.76986957 0.85549343 4286719801
-0.011999868 -0.77005029 0.85524976 4286719801
-0.011999898 -0.7701779 0.85505199 4286719801
-0.011999907 -0.77015686 0.85496712 4286719801
-0.014088422 -0.79230332 0.86061007 4286719801
-0.014088402 -0.79215127 0.86062044 4286719801
-0.014088384 -0.79201698 0.86061311 4286719801
-0.014088375 -0.79193926 0.86057055 4286719801
-0.014088343 -0.7917164 0.86062318 4286719801
-0.014088352 -0.79175198 0.86050302 4286719801
-0.014088336 -0.7916283 0.86049217 4286719801
-0.014088299 -0.79137361 0.86056954 4286719801
-0.014088281 -0.79123926 0.86056221 4286719801
-0.014088287 -0.79125357 0.86045617 4286719801
-0.014088282 -0.79120064 0.86039597 4286719801
-0.014088257 -0.79102027 0.86042744 4286719801
-0.014088226 -0.79080808 0.86047661 4286719801
-0.014088188 -0.79054981 0.86055744 4286719801
-0.01408815 -0.79029161 0.86063832 4286719801
-0.014088137 -0.79018557 0.86061686 4286719801
-0.01408814 -0.79017866 0.86052495 4286719801
-0.014088131 -0.79010451 0.86047888 4286719801
-0.014088114 -0.78996658 0.86047506 4286719801
-0.014088116 -0.78995615 0.86038667 4286719801
-0.014088104 -0.78986079 0.86035466 4286719801
-0.014088081 -0.78969455 0.86037207 4286719801
-0.014088035 -0.78938317 0.86049175 4286719801
-0.014087983 -0.78905064 0.86062545 4286719801
-0.014087964 -0.78890568 0.86062878 4286719801
-0.014087964 -0.78887755 0.86055094 4286719801
-0.014087959 -0.78882456 0.86049074 4286719801
-0.014087954 -0.78876811 0.86043406 4286719801
-0.014087957 -0.78876477 0.86033857 4286719801
-0.01408794 -0.78863043 0.86033833 4286719801
-0.014087903 -0.78838277 0.8604157 4286719801
-0.014087861 -0.78810328 0.86051065 4286719801
-0.014087833 -0.7879017 0.86055624 4286719801
-0.014087828 -0.78784877 0.86049604 4286719801
-0.014087842 -0.78790915 0.86035824 4286719801
-0.01408782 -0.7877571 0.86036861 4286719801
-0.014087767 -0.7874068 0.86051291 4286719801
-0.014087736 -0.78718752 0.86056912 4286719801
-0.01408772 -0.78706378 0.86055827 4286719801
-0.014087734 -0.7871241 0.86042053 4286719801
-0.014087752 -0.78720927 0.86026508 4286719801
-0.014087741 -0.78712445 0.86022961 4286719801
-0.014087724 -0.78699011 0.86022937 4286719801
-0.01408767 -0.78663981 0.86037368 4286719801
-0.014087643 -0.7864418 0.86040866 4286719801
-0.014087634 -0.78637117 0.86036611 4286719801
-0.014087621 -0.78626513 0.86034471 4286719801
-0.014087606 -0.78614849 0.86032683 4286719801
-0.014087607 -0.78612745 0.86024195 4286719801
-0.014087593 -0.78602141 0.86022055 4286719801
-0.014087525 -0.78557909 0.86043543 4286719801
-0.014087509 -0.78540963 0.86026543 4286719801
-0.014087498 -0.78531426 0.86023343 4286719801
-0.01408748 -0.78518349 0.86022967 4286719801
-0.014087484 -0.78518361 0.86013067 4286719801
-0.014087449 -0.7849431 0.86020797 4286719801
-0.014087371 -0.78443706 0.86045814 4286719801
-0.014087356 -0.78432393 0.86044377 4286719801
-0.014087337 -0.78418607 0.86044705 4286719801
-0.014087318 -0.78404462 0.86044681 4286719801
-0.014087315 -0.78399879 0.86038661 4286719801
-0.014087298 -0.78387505 0.86037582 4286719801
-0.014087277 -0.783723 0.86038613 4286719801
-0.014087264 -0.78361696 0.86036474 4286719801
-0.014087257 -0.78354633 0.86031514 4286719801
-0.014087251 -0.78348988 0.86025846 4286719801
-0.014087236 -0.78337324 0.86024761 4286719801
-0.014087223 -0.78326368 0.86022973 4286719801
-0.014087217 -0.78320718 0.86017305 4286719801
-0.014087192 -0.78303033 0.86020106 4286719801
-0.014087168 -0.78286415 0.86021841 4286719801
-0.014087146 -0.78270149 0.86023933 4286719801
-0.01408712 -0.78252113 0.86027086 4286719801
-0.0140871 -0.78236908 0.86028117 4286719801
-0.014087068 -0.78214979 0.86033738 4286719801
-0.014087047 -0.78200126 0.86035126 4286719801
-0.014087044 -0.78195184 0.86028749 4286719801
-0.014087034 -0.78187418 0.86024493 4286719801
-0.014087017 -0.78174335 0.86024117 4286719801
-0.014086998 -0.78160548 0.86024445 4286719801
-0.014086978 -0.78145343 0.86025482 4286719801
-0.014086951 -0.78126597 0.86029333 4286719801
-0.014086916 -0.7810325 0.86036366 4286719801
-0.014086915 -0.78100079 0.86028934 4286719801
-0.014086921 -0.78100806 0.86019039 4286719801
-0.014086913 -0.78093743 0.86014074 4286719801
-0.014086882 -0.78072166 0.86020046 4286719801
-0.014086829 -0.78035736 0.86026698 4286719801
-0.014086822 -0.78028673 0.86022443 4286719801
-0.014086808 -0.78017718 0.86020654 4286719801
-0.01408679 -0.7800464 0.86020279 4286719801
-0.014086777 -0.77994031 0.86018139 4286719801
-0.014086754 -0.77977765 0.86020231 4286719801
-0.014086738 -0.77965748 0.86019504 4286719801
-0.014086716 -0.77949834 0.86021948 4286719801
-0.014086709 -0.77943122 0.86016631 4286719801
-0.014086707 -0.779396 0.86009556 4286719801
-0.01408668 -0.77920145 0.86014825 4286719801
-0.014086653 -0.77901399 0.86018682 4286719801
-0.014086635 -0.77888322 0.86019009 4286719801
-0.014086633 -0.77885151 0.86011583 4286719801
-0.014086627 -0.77878797 0.86006618 4286719801
-0.014086597 -0.77858281 0.86012238 4286719801
-0.014086576 -0.77843428 0.86013627 4286719801
-0.014086562 -0.77832472 0.86011839 4286719801
-0.014086529 -0.77809829 0.86018872 4286719801
-0.014086506 -0.77793914 0.86021316 4286719801
-0.014086497 -0.7778579 0.86017412 4286719801
-0.014086491 -0.77779794 0.86012095 4286719801
-0.014086484 -0.77773082 0.86007488 4286719801
-0.014086473 -0.7776354 0.86004996 4286719801
-0.014086446 -0.77745146 0.8600921 4286719801
-0.014086425 -0.77730298 0.86010593 4286719801
-0.014086409 -0.77717924 0.86010218 4286719801
-0.014086396 -0.77706963 0.8600843 4286719801
-0.01408638 -0.77694947 0.86007702 4286719801
-0.014086365 -0.77683634 0.86006272 4286719801
-0.014086341 -0.7766701 0.86009419 4286719801
-0.014086334 -0.77660304 0.86004812 4286719801
-0.014086342 -0.77662796 0.85993153 4286719801
-0.014086334 -0.77655381 0.85988539 4286719801
-0.014086302 -0.77633804 0.85995221 4286719801
-0.014086274 -0.77614701 0.86000139 4286719801
-0.014086253 -0.77599144 0.86002231 4286719801
-0.014086221 -0.77577919 0.86008555 4286719801
-0.0140862 -0.77562714 0.86010295 4286719801
-0.014086189 -0.77553523 0.86007452 4286719801
-0.01408617 -0.77539736 0.8600778 4286719801
-0.014086151 -0.77525234 0.8600952 4286719801
-0.014086138 -0.77515697 0.86007029 4286719801
-0.014086133 -0.77510047 0.8600136 4286719801
-0.014086117 -0.77497673 0.86000985 4286719801
-0.014086084 -0.77475387 0.8600837 4286719801
-0.014086065 -0.77459139 0.86001271 4286719801
-0.016015545 -0.79108644 0.86027575 4286719801
-0.016015522 -0.79083526 0.86034954 4286719801
-0.016015498 -0.79055578 0.86044449 4286719801
-0.0160155 -0.79049581 0.86039132 4286719801
-0.016015507 -0.79046762 0.86031348 4286719801
-0.016015507 -0.79039347 0.8602674 4286719801
-0.016015505 -0.79030162 0.86023188 4286719801
-0.016015479 -0.79001504 0.86033392 4286719801
-0.016015444 -0.78965414 0.86048883 4286719801
-0.016015433 -0.78947735 0.86051679 4286719801
-0.016015431 -0.78938192 0.86048478 4286719801
-0.016015425 -0.78926885 0.86046338 4286719801
-0.016015429 -0.78921235 0.8604067 4286719801
-0.016015433 -0.78917003 0.86034298 4286719801
-0.016015418 -0.78897554 0.86038154 4286719801
-0.016015409 -0.78881639 0.86039186 4286719801
-0.016015407 -0.78872454 0.86035633 4286719801
-0.016015392 -0.78851938 0.86040545 4286719801
-0.016015381 -0.78836381 0.86041933 4286719801
-0.016015392 -0.7883746 0.86031681 4286719801
-0.016015397 -0.78833228 0.860246 4286719801
-0.016015373 -0.78806341 0.86033744 4286719801
-0.01601534 -0.78770959 0.86048532 4286719801
-0.01601534 -0.78763193 0.86044276 4286719801
-0.016015343 -0.78758603 0.86038256 4286719801
-0.01601534 -0.78748357 0.86035764 4286719801
-0.016015334 -0.78736335 0.86034328 4286719801
-0.016015317 -0.78714406 0.86039943 4286719801
-0.016015314 -0.78703803 0.86037803 4286719801
-0.016015312 -0.78694618 0.8603425 4286719801
-0.01601531 -0.78684372 0.86031759 4286719801
-0.016015306 -0.78673059 0.86029619 4286719801
-0.016015295 -0.78656083 0.86031705 4286719801
-0.016015287 -0.78643715 0.8603133 4286719801
-0.016015291 -0.78638422 0.8602531 4286719801
-0.016015291 -0.78631002 0.86020702 4286719801
-0.016015276 -0.78610492 0.86024904 4286719801
-0.016015254 -0.78585017 0.86033344 4286719801
-0.016015258 -0.78580081 0.86026973 4286719801
-0.016015263 -0.7857691 0.86019546 4286719801
-0.016015263 -0.78568786 0.86015642 4286719801
-0.016015254 -0.78553939 0.86016321 4286719801
-0.016015239 -0.78533775 0.86020881 4286719801
-0.01601523 -0.78519279 0.86021209 4286719801
-0.016015213 -0.78497702 0.86026472 4286719801
-0.016015198 -0.78478247 0.86031032 4286719801
-0.016015198 -0.7847048 0.86026776 4286719801
-0.016015198 -0.78462708 0.8602252 4286719801
-0.016015183 -0.78443253 0.86026376 4286719801
-0.016015176 -0.78429466 0.86026704 4286719801
-0.016015174 -0.7841922 0.86024213 4286719801
-0.01601517 -0.78408968 0.86021715 4286719801
-0.016015165 -0.78396595 0.86020637 4286719801
-0.016015155 -0.78381395 0.86021668 4286719801
-0.016015155 -0.78373623 0.86017412 4286719801
-0.01601515 -0.78361249 0.86016327 4286719801
-0.016015135 -0.78341091 0.86020887 4286719801
-0.016015137 -0.7833544 0.86015218 4286719801
-0.01601514 -0.78330505 0.86009556 4286719801
-0.016015118 -0.78305387 0.86017638 4286719801
-0.016015109 -0.78289825 0.86019027 4286719801
-0.016015105 -0.78278869 0.8601653 4286719801
-0.016015086 -0.78257293 0.86022502 4286719801
-0.016015083 -0.78245628 0.86020714 4286719801
-0.016015086 -0.78240693 0.86015052 4286719801
-0.016015079 -0.78227967 0.86014318 4286719801
-0.016015071 -0.78214526 0.86014295 4286719801
-0.016015053 -0.78191537 0.8602097 4286719801
-0.016015036 -0.78171021 0.86025882 4286719801
-0.016015047 -0.78171396 0.8601563 4286719801
-0.01601506 -0.78174239 0.86004323 4286719801
-0.01601506 -0.78166115 0.86000419 4286719801
-0.016015042 -0.78143829 0.86006391 4286719801
-0.016015029 -0.78125441 0.8600989 4286719801
-0.016015029 -0.7811873 0.86005282 4286719801
-0.016015027 -0.78109545 0.86002439 4286719801
-0.016015017 -0.78093278 0.86003822 4286719801
-0.016015006 -0.78077012 0.86005914 4286719801
-0.016014988 -0.78054374 0.86012238 4286719801
-0.016014976 -0.78039169 0.86013979 4286719801
-0.016014975 -0.78029627 0.86010778 4286719801
-0.016014971 -0.78018314 0.86009347 4286719801
-0.016014965 -0.78006649 0.86008263 4286719801
-0.016014956 -0.77991444 0.86009294 4286719801
-0.016014947 -0.77976239 0.86011034 4286719801
-0.016014935 -0.77959973 0.86013126 4286719801
-0.016014928 -0.77946186 0.86013454 4286719801
-0.016014917 -0.77930623 0.86015552 4286719801
-0.016014904 -0.77912939 0.86019057 4286719801
-0.016014919 -0.77916145 0.86006689 4286719801
-0.016014934 -0.77920765 0.85993612 4286719801
-0.016014919 -0.77900952 0.85998529 4286719801
-0.016014894 -0.77875131 0.86008024 4286719801
-0.016014881 -0.77857447 0.86011529 4286719801
-0.016014874 -0.77844363 0.86011863 4286719801
-0.016014865 -0.77829868 0.86012894 4286719801
-0.016014859 -0.77818555 0.86011457 4286719801
-0.016014863 -0.77812552 0.86006147 4286719801
-0.016014865 -0.77806199 0.86001182 4286719801
-0.016014861 -0.77796656 0.8599869 4286719801
-0.016014846 -0.77778262 0.86002904 4286719801
-0.016014844 -0.77767658 0.86000764 4286719801
-0.016014846 -0.77762014 0.85995096 4286719801
-0.016014844 -0.77752829 0.85992253 4286719801
-0.01601484 -0.77742577 0.85990465 4286719801
-0.016014833 -0.77730203 0.85990089 4286719801
-0.016014798 -0.77695525 0.8600629 4286719801
-0.016014779 -0.77672887 0.86013317 4286719801
-0.016014779 -0.77665114 0.86009771 4286719801
-0.016014779 -0.77658761 0.86004806 4286719801
-0.016014783 -0.77654171 0.85998791 4286719801
-0.016014792 -0.77653128 0.85989243 4286719801
-0.016014783 -0.77637923 0.85990983 4286719801
-0.016014747 -0.77604306 0.86006832 4286719801
-0.016014744 -0.77592999 0.86005396 4286719801
-0.016014745 -0.77587348 0.86000437 4286719801
-0.016014744 -0.77577454 0.85997593 4286719801
-0.016014731 -0.77560121 0.8600145 4286719801
-0.016014723 -0.77547747 0.86001074 4286719801
-0.016014719 -0.77536792 0.85999286 4286719801
-0.016014716 -0.77526897 0.85997146 4286719801
-0.016014712 -0.77516294 0.8599571 4286719801
-0.016014697 -0.77497196 0.85999924 4286719801
-0.016014688 -0.77482343 0.86002016 4286719801
-0.016014688 -0.7747457 0.8599776 4286719801
-0.016014682 -0.77463967 0.85996324 4286719801
-0.016014677 -0.77451593 0.85995948 4286719801
-0.016014673 -0.77440989 0.85994518 4286719801
-0.01601466 -0.77424014 0.85997313 4286719801
-0.018100765 -0.79209769 0.86063445 4286719801
-0.018100725 -0.79182899 0.86062694 4286719801
-0.018100729 -0.79181147 0.86053848 4286719801
-0.018100727 -0.79176915 0.86047482 4286719801
-0.01810072 -0.79169852 0.86042517 4286719801
-0.018100729 -0.79171991 0.8603121 4286719801
-0.01810069 -0.79147232 0.86038947 4286719801
-0.01810067 -0.79133797 0.86038214 4286719801
-0.018100677 -0.79134524 0.8602832 4286719801
-0.018100668 -0.791264 0.86023706 4286719801
-0.018100591 -0.79081106 0.86045557 4286719801
-0.018100554 -0.79057759 0.86051881 4286719801
-0.018100552 -0.79053175 0.86045152 4286719801
-0.018100522 -0.79034078 0.86048657 4286719801
-0.0181005 -0.79018521 0.86050045 4286719801
-0.018100487 -0.79008979 0.86046851 4286719801
-0.018100472 -0.78997314 0.86045063 4286719801
-0.018100455 -0.7898494 0.86043984 4286719801
-0.018100454 -0.78981066 0.86037254 4286719801
-0.018100457 -0.78980368 0.86028063 4286719801
-0.018100452 -0.78973663 0.86022747 4286719801
-0.018100431 -0.7895987 0.8602308 4286719801
-0.018100414 -0.78947151 0.86021644 4286719801
-0.018100396 -0.78934067 0.86021268 4286719801
-0.018100385 -0.78925234 0.86018074 4286719801
-0.018100372 -0.78914982 0.86015582 4286719801
-0.018100318 -0.78882438 0.86028254 4286719801
-0.018100271 -0.78853428 0.86038816 4286719801
-0.018100252 -0.78840351 0.86037731 4286719801
-0.018100232 -0.78822678 0.86031342 4286719801
-0.01810018 -0.78791904 0.86042958 4286719801
-0.018100146 -0.78770328 0.86048222 4286719801
-0.018100131 -0.78758311 0.86046791 4286719801
-0.018100128 -0.78753722 0.86040771 4286719801
-0.018100098 -0.78734624 0.86044276 4286719801
-0.018100081 -0.78721899 0.86043549 4286719801
-0.018100094 -0.78725809 0.86031181 4286719801
-0.018100074 -0.78712022 0.86030805 4286719801
-0.018100049 -0.78695399 0.86032546 4286719801
-0.018100044 -0.78689396 0.86027229 4286719801
-0.018100044 -0.78685874 0.86020154 4286719801
-0.018100021 -0.78670669 0.86021191 4286719801
-0.018099993 -0.78652638 0.86023635 4286719801
-0.018099964 -0.78633535 0.86027849 4286719801
-0.018099947 -0.78621161 0.86026764 4286719801
-0.01809993 -0.78608787 0.86025685 4286719801
-0.018099904 -0.78591818 0.86027777 4286719801
-0.018099884 -0.78577673 0.86027753 4286719801
-0.018099878 -0.7857132 0.86022794 4286719801
-0.018099865 -0.78560716 0.86020654 4286719801
-0.018099843 -0.7854622 0.86020982 4286719801
-0.018099811 -0.78525001 0.860259 4286719801
-0.018099789 -0.78510147 0.86026579 4286719801
-0.018099748 -0.7848503 0.86034673 4286719801
-0.018099733 -0.78473014 0.86033237 4286719801
-0.01809972 -0.78462762 0.86030746 4286719801
-0.018099705 -0.78452516 0.86028254 4286719801
-0.018099681 -0.7843554 0.86031055 4286719801
-0.018099666 -0.78424585 0.86028564 4286719801
-0.01809966 -0.78418583 0.86023247 4286719801
-0.018099666 -0.78418595 0.86014056 4286719801
-0.018099662 -0.78413659 0.86007684 4286719801
-0.018099645 -0.78401285 0.86006606 4286719801
-0.01809961 -0.78378648 0.8601293 4286719801
-0.018099559 -0.78348577 0.86024547 4286719801
-0.018099537 -0.7833302 0.86025935 4286719801
-0.018099535 -0.78328788 0.8601886 4286719801
-0.018099528 -0.78322077 0.86014253 4286719801
-0.018099515 -0.78311831 0.86011761 4286719801
-0.018099505 -0.78303701 0.86007857 4286719801
-0.018099474 -0.78283185 0.86012775 4286719801
-0.018099438 -0.78260553 0.86019099 4286719801
-0.018099414 -0.7824499 0.86020488 4286719801
-0.018099377 -0.78221649 0.86027521 4286719801
-0.018099364 -0.78211045 0.86025381 4286719801
-0.01809936 -0.78206813 0.86019009 4286719801
-0.018099338 -0.78191608 0.86020046 4286719801
-0.018099321 -0.78179234 0.86018968 4286719801
-0.018099321 -0.78175712 0.86011887 4286719801
-0.018099312 -0.78167939 0.86007631 4286719801
-0.018099297 -0.78156275 0.86006552 4286719801
-0.01809926 -0.78132927 0.86013585 4286719801
-0.01809922 -0.78109229 0.86020267 4286719801
-0.018099211 -0.78101104 0.86017066 4286719801
-0.018099207 -0.78096163 0.860107 4286719801
-0.018099187 -0.78081661 0.86011732 4286719801
-0.01809917 -0.78069645 0.86010301 4286719801
-0.018099152 -0.7805621 0.86010277 4286719801
-0.018099114 -0.78032863 0.86017311 4286719801
-0.018099084 -0.78013766 0.86021525 4286719801
-0.018099081 -0.78008473 0.86015505 4286719801
-0.018099077 -0.7800318 0.86009485 4286719801
-0.018099068 -0.77995759 0.8600558 4286719801
-0.018099045 -0.77980554 0.86006618 4286719801
-0.018099004 -0.77954733 0.86016124 4286719801
-0.018098975 -0.77936339 0.86020333 4286719801
-0.018098971 -0.77931398 0.86013961 4286719801
-0.018098954 -0.77918673 0.86013943 4286719801
-0.01809893 -0.77903467 0.86015683 4286719801
-0.018098919 -0.77893573 0.8601284 4286719801
-0.018098731 -0.77752537 0.85991746 4286719801
-0.018098706 -0.7773698 0.85993844 4286719801
-0.01809869 -0.77724957 0.85993117 4286719801
-0.018098667 -0.77710104 0.85994506 4286719801
-0.018098645 -0.77695256 0.85995895 4286719801
-0.018098632 -0.77684653 0.85994464 4286719801
-0.018098617 -0.77674049 0.85992324 4286719801
-0.018098596 -0.77660257 0.85993361 4286719801
-0.01809857 -0.77642578 0.85996866 4286719801
-0.018098557 -0.77632326 0.85994381 4286719801
-0.018098537 -0.77618182 0.8599577 4286719801
-0.018098515 -0.77603686 0.85996807 4286719801
-0.018098498 -0.77591312 0.85996431 4286719801
-0.018098485 -0.77581769 0.8599394 4286719801
-0.018098477 -0.77574348 0.85990041 4286719801
-0.018098464 -0.77564806 0.8598755 4286719801
-0.018098438 -0.7754783 0.85990351 4286719801
-0.018098401 -0.77524483 0.85998088 4286719801
-0.018098382 -0.77511048 0.85998774 4286719801
-0.018098366 -0.77499735 0.85997343 4286719801
-0.018098351 -0.7748878 0.85996264 4286719801
-0.018098332 -0.77475697 0.85996592 4286719801
-0.018098319 -0.7746228 0.85987377 4286719801
-0.018098285 -0.77441055 0.85993707 4286719801
-0.018098274 -0.77432579 0.85990161 4286719801
-0.018098265 -0.77424449 0.85986966 4286719801
-0.019969989 -0.79151964 0.86017263 4286719801
-0.019969976 -0.79119772 0.86029583 4286719801
-0.019969966 -0.79093951 0.86037672 4286719801
-0.019969963 -0.79081219 0.86036944 4286719801
-0.019969968 -0.79085129 0.86024576 4286719801
-0.01996997 -0.79082316 0.86016798 4286719801
-0.019969963 -0.79060388 0.86022413 4286719801
-0.019969957 -0.79042 0.86025214 4286719801
-0.019969955 -0.79033518 0.86021668 4286719801
-0.019969949 -0.7901513 0.86024463 4286719801
-0.01996994 -0.78991073 0.86031497 4286719801
-0.019969935 -0.78973037 0.8603394 4286719801
-0.019969938 -0.78971285 0.86025804 4286719801
-0.01996994 -0.78970236 0.86016965 4286719801
-0.019969936 -0.7895574 0.86017293 4286719801
-0.019969923 -0.78922838 0.86030322 4286719801
-0.019969922 -0.78913301 0.86027122 4286719801
-0.019969923 -0.78907651 0.86021459 4286719801
-0.019969922 -0.78897756 0.8601861 4286719801
-0.019969916 -0.788822 0.86019999 4286719801
-0.019969912 -0.78865576 0.86021739 4286719801
-0.019969907 -0.78847897 0.86024541 4286719801
-0.019969897 -0.7882632 0.8602981 4286719801
-0.019969897 -0.78819257 0.86024845 4286719801
-0.019969894 -0.788037 0.86026233 4286719801
-0.019969888 -0.78787434 0.86027622 4286719801
-0.019969892 -0.78785324 0.86019838 4286719801
-0.019969897 -0.78788173 0.86007822 4286719801
-0.019969888 -0.78766596 0.86013091 4286719801
-0.019969879 -0.78741127 0.86021537 4286719801
-0.019969871 -0.78718847 0.86027509 4286719801
-0.019969868 -0.78707182 0.86025721 4286719801
-0.019969869 -0.78702241 0.86019349 4286719801
-0.019969864 -0.78685617 0.86021799 4286719801
-0.019969862 -0.7867254 0.86020714 4286719801
-0.019969864 -0.78669369 0.86013287 4286719801
-0.019969855 -0.78647441 0.86018908 4286719801
-0.019969834 -0.78601086 0.86041808 4286719801
-0.01996983 -0.78585178 0.86042845 4286719801
-0.019969836 -0.78589082 0.86030477 4286719801
-0.019969847 -0.78603262 0.8601141 4286719801
-0.019969845 -0.78594071 0.86007857 4286719801
-0.019969836 -0.7857002 0.86014891 4286719801
-0.019969832 -0.78554815 0.86015922 4286719801
-0.019969821 -0.78527576 0.86025423 4286719801
-0.019969812 -0.78503168 0.86032808 4286719801
-0.019969812 -0.78496104 0.86027849 4286719801
-0.01996981 -0.78484792 0.86026418 4286719801
-0.019969806 -0.78472775 0.86024982 4286719801
-0.019969808 -0.78466773 0.86019671 4286719801
-0.019969802 -0.78449798 0.86021763 4286719801
-0.019969799 -0.78435653 0.86022449 4286719801
-0.019969797 -0.78425407 0.86019951 4286719801
-0.019969793 -0.78412682 0.86019224 4286719801
-0.019969793 -0.78404909 0.86014968 4286719801
-0.019969793 -0.78399259 0.86009306 4286719801
-0.019969793 -0.78392553 0.86004698 4286719801
-0.019969793 -0.7838549 0.85999733 4286719801
-0.019969791 -0.78374177 0.85998303 4286719801
-0.019969786 -0.78356493 0.86001104 4286719801
-0.019969776 -0.78333855 0.86007428 4286719801
-0.019969774 -0.78323609 0.86004937 4286719801
-0.019969773 -0.78311235 0.86003852 4286719801
-0.019969765 -0.78290725 0.86008769 4286719801
-0.019969761 -0.78276223 0.86009103 4286719801
-0.01996976 -0.78266686 0.86006612 4286719801
-0.019969754 -0.78248292 0.86010116 4286719801
-0.01996975 -0.78235918 0.86009037 4286719801
-0.019969754 -0.78234875 0.86000192 4286719801
-0.019969752 -0.78226042 0.85996997 4286719801
-0.019969743 -0.78199154 0.86006147 4286719801
-0.019969732 -0.78173685 0.86014587 4286719801
-0.019969733 -0.78169805 0.86007863 4286719801
-0.019969733 -0.78162038 0.86003608 4286719801
-0.019969728 -0.78143644 0.86007112 4286719801
-0.019969722 -0.78126675 0.86009204 4286719801
-0.019969724 -0.78123856 0.86002135 4286719801
-0.019969728 -0.78123164 0.85992938 4286719801
-0.019969717 -0.78097337 0.86001736 4286719801
-0.019969707 -0.78071159 0.86010176 4286719801
-0.019969705 -0.78063035 0.86006278 4286719801
-0.019969705 -0.78056324 0.86001664 4286719801
-0.019969702 -0.78040415 0.86003411 4286719801
-0.0199697 -0.7802946 0.86001623 4286719801
-0.019969702 -0.7802735 0.85993838 4286719801
-0.019969702 -0.78020638 0.85988528 4286719801
-0.019969694 -0.78001893 0.85992384 4286719801
-0.019969687 -0.77981377 0.85998011 4286719801
-0.019969687 -0.77972543 0.8599481 4286719801
-0.019969687 -0.77966547 0.8598879 4286719801
-0.019969685 -0.77955586 0.85987711 4286719801
-0.019969668 -0.77910662 0.86001426 4286719801
-0.01996967 -0.77909261 0.85992938 4286719801
-0.019969672 -0.77899384 0.85980904 4286719801
-0.01996967 -0.77886301 0.85980529 4286719801
-0.019969661 -0.77864367 0.85987562 4286719801
-0.019969657 -0.77850938 0.85987538 4286719801
-0.019969655 -0.77841747 0.85984695 4286719801
-0.019969651 -0.77825129 0.85987145 4286719801
-0.019969631 -0.77762532 0.85995173 4286719801
-0.019969631 -0.77749825 0.85985249 4286719801
-0.019969618 -0.77706331 0.8598907 4286719801
-0.019969618 -0.77692908 0.85979855 4286719801
-0.019969618 -0.77684784 0.85975951 4286719801
-0.019969616 -0.77675241 0.85973459 4286719801
-0.019969612 -0.77661097 0.85974145 4286719801
-0.019969609 -0.77646601 0.85975182 4286719801
-0.019969601 -0.77628917 0.85979396 4286719801
-0.019969597 -0.77614063 0.85980785 4286719801
-0.019969596 -0.77603108 0.85978997 4286719801
-0.019969592 -0.77589673 0.85979682 4286719801
-0.019969588 -0.77578008 0.85978603 4286719801
-0.019969586 -0.77565277 0.85978585 4286719801
-0.019969575 -0.77539456 0.85988086 4286719801
-0.019969566 -0.77516812 0.85995829 4286719801
-0.019969562 -0.77501255 0.85997921 4286719801
-0.019969558 -0.77490294 0.85996139 4286719801
-0.019969556 -0.77478981 0.85995412 4286719801
-0.019969549 -0.77459532 0.85999978 4286719801
-0.019969545 -0.77438676 0.85996759 4286719801
-0.019969543 -0.77427363 0.85995322 4286719801
-0.019969543 -0.7742101 0.85990363 4286719801
-0.019969543 -0.77416778 0.85983992 4286719801
-0.01996954 -0.77402633 0.85985386 4286719801
-0.019969534 -0.7738601 0.8598783 4286719801
-0.019969534 -0.77378595 0.85983932 4286719801
-0.022015385 -0.79082704 0.8604151 4286719801
-0.022015369 -0.79061478 0.86046422 4286719801
-0.022015356 -0.79044509 0.86048514 4286719801
-0.022015346 -0.79030722 0.86048138 4286719801
-0.022015342 -0.79023653 0.86043179 4286719801
-0.022015348 -0.79027212 0.86031163 4286719801
-0.022015344 -0.79019797 0.86026555 4286719801
-0.022015333 -0.7900424 0.86027938 4286719801
-0.02201532 -0.78986555 0.8603003 4286719801
-0.022015305 -0.78966749 0.86034238 4286719801
-0.022015294 -0.78950483 0.8603633 4286719801
-0.022015274 -0.78925365 0.86043715 4286719801
-0.022015264 -0.78910869 0.86044043 4286719801
-0.022015262 -0.78905934 0.86037672 4286719801
-0.022015251 -0.78890729 0.86038703 4286719801
-0.022015238 -0.78873754 0.86040795 4286719801
-0.022015231 -0.78862447 0.86038655 4286719801
-0.022015227 -0.78856087 0.86033696 4286719801
-0.022015223 -0.78848672 0.86029088 4286719801
-0.022015212 -0.78833818 0.86029768 4286719801
-0.022015195 -0.78811187 0.86036092 4286719801
-0.022015188 -0.78798455 0.86035365 4286719801
-0.022015182 -0.7879104 0.86030757 4286719801
-0.022015177 -0.78780788 0.86028266 4286719801
-0.022015162 -0.7876063 0.86032826 4286719801
-0.022015136 -0.78728789 0.86045498 4286719801
-0.022015139 -0.78729159 0.86035246 4286719801
-0.022015138 -0.78725994 0.86027813 4286719801
-0.022015125 -0.78707248 0.86030966 4286719801
-0.022015115 -0.78694522 0.86030233 4286719801
-0.022015106 -0.78680378 0.86030918 4286719801
-0.022015085 -0.78655261 0.86038297 4286719801
-0.022015074 -0.78639352 0.86039335 4286719801
-0.022015076 -0.78637594 0.86031199 4286719801
-0.022015063 -0.78620976 0.86032939 4286719801
-0.022015054 -0.7860648 0.86033976 4286719801
-0.022015043 -0.78591275 0.86034304 4286719801
-0.022015043 -0.78589523 0.86026168 4286719801
-0.022015054 -0.78599095 0.86010271 4286719801
-0.022015037 -0.78577167 0.86015892 4286719801
-0.022015013 -0.78546739 0.86027151 4286719801
-0.022015002 -0.78531182 0.8602854 4286719801
-0.022015 -0.7852695 0.86021465 4286719801
-0.022014994 -0.78516346 0.86019319 4286719801
-0.022014976 -0.78492999 0.86026353 4286719801
-0.022014966 -0.78479213 0.86025977 4286719801
-0.022014957 -0.78465778 0.86025953 4286719801
-0.022014949 -0.78455883 0.8602311 4286719801
-0.022014944 -0.7844528 0.8602097 4286719801
-0.022014946 -0.78445649 0.86011422 4286719801
-0.02201494 -0.78436112 0.86008227 4286719801
-0.022014922 -0.78413475 0.86014551 4286719801
-0.022014901 -0.78386939 0.86023343 4286719801
-0.022014888 -0.78368193 0.86027199 4286719801
-0.022014881 -0.78357947 0.86024708 4286719801
-0.022014873 -0.78345221 0.8602398 4286719801
-0.022014851 -0.78316563 0.86034185 4286719801
-0.022014841 -0.78303838 0.86033452 4286719801
-0.022014845 -0.78306687 0.86022145 4286719801
-0.022014856 -0.78316259 0.86006254 4286719801
-0.022014853 -0.78309548 0.86000937 4286719801
-0.02201484 -0.7829116 0.86004442 4286719801
-0.022014813 -0.78259319 0.86017114 4286719801
-0.022014797 -0.78237391 0.86022735 4286719801
-0.022014791 -0.78228199 0.86019886 4286719801
-0.022014786 -0.78217953 0.86017394 4286719801
-0.022014776 -0.7820558 0.86016315 4286719801
-0.022014773 -0.78198516 0.86012059 4286719801
-0.022014769 -0.78192514 0.86006749 4286719801
-0.022014759 -0.7817837 0.86007428 4286719801
-0.022014745 -0.78159273 0.86010933 4286719801
-0.022014737 -0.78146189 0.86010557 4286719801
-0.022014722 -0.78128153 0.86013705 4286719801
-0.022014713 -0.78112948 0.86014742 4286719801
-0.022014709 -0.78106594 0.86009783 4286719801
-0.022014707 -0.78101653 0.86004114 4286719801
-0.022014698 -0.78089637 0.86002678 4286719801
-0.022014679 -0.7806558 0.86010414 4286719801
-0.022014664 -0.78044009 0.86015683 4286719801
-0.022014661 -0.78038359 0.86010724 4286719801
-0.022014659 -0.78033775 0.86004001 4286719801
-0.022014651 -0.7802211 0.86002916 4286719801
-0.02201464 -0.78006196 0.86004657 4286719801
-0.022014631 -0.77993822 0.86003578 4286719801
-0.022014624 -0.77983218 0.86002141 4286719801
-0.022014605 -0.77955639 0.86002803 4286719801
-0.022014599 -0.77945745 0.86000663 4286719801
-0.02201459 -0.7793408 0.85999584 4286719801
-0.022014573 -0.77912503 0.86005557 4286719801
-0.022014558 -0.7789163 0.86011529 4286719801
-0.022014553 -0.77883506 0.86007631 4286719801
-0.022014549 -0.7787503 0.86004078 4286719801
-0.02201454 -0.77863717 0.86003351 4286719801
-0.022014536 -0.77855945 0.85999095 4286719801
-0.022014534 -0.77851003 0.85993433 4286719801
-0.022014515 -0.77827305 0.86000812 4286719801
-0.022014502 -0.77808219 0.85995829 4286719801
-0.022014495 -0.77796203 0.85995102 4286719801
-0.02201448 -0.77776039 0.86000371 4286719801
-0.022014478 -0.77771807 0.85993999 4286719801
-0.02201448 -0.77770764 0.8598516 4286719801
-0.022014456 -0.77740335 0.85997838 4286719801
-0.022014434 -0.77712387 0.86009455 4286719801
-0.02201443 -0.77705318 0.86005199 4286719801
-0.02201443 -0.77702856 0.85997063 4286719801
-0.022014426 -0.77696151 0.85992455 4286719801
-0.022014419 -0.77684838 0.85991025 4286719801
-0.022014402 -0.77664322 0.85996646 4286719801
-0.022014387 -0.77644867 0.86001915 4286719801
-0.022014381 -0.77635682 0.85999072 4286719801
-0.022014368 -0.77617997 0.86002576 4286719801
-0.022014357 -0.77601373 0.8600502 4286719801
-0.022014346 -0.77587229 0.86006415 4286719801
-0.022014335 -0.77571672 0.86008507 4286719801
-0.022014327 -0.77561069 0.86006367 4286719801
-0.022014329 -0.77559668 0.8599788 4286719801
-0.022014324 -0.77550477 0.85995036 4286719801
-0.022014316 -0.77538818 0.85993952 4286719801
-0.022014312 -0.7753281 0.8598935 4286719801
-0.022014299 -0.77515483 0.85992503 4286719801
-0.022014279 -0.77490014 0.86001647 4286719801
-0.022014277 -0.77485424 0.85995632 4286719801
-0.02201427 -0.77472699 0.85995609 4286719801
-0.022014258 -0.77458555 0.85996997 4286719801
-0.022014255 -0.77451491 0.85992038 4286719801
-0.022014234 -0.77423203 0.85994112 4286719801
-0.022014223 -0.77406579 0.8599726 4286719801
-0.022014212 -0.77392435 0.85998654 4286719801
-0.02201419 -0.77353221 0.85979849 4286719801
-0.024053436 -0.79024482 0.86025411 4286719801
-0.024053421 -0.79007155 0.86027855 4286719801
-0.024053408 -0.78992301 0.86028534 4286719801
-0.024053404 -0.78982764 0.86025339 4286719801
-0.024053385 -0.7896331 0.8602919 4286719801
-0.024053365 -0.7894209 0.86034107 4286719801
-0.024053361 -0.78933609 0.86030555 4286719801
-0.02405335 -0.78919464 0.86030531 4286719801
-0.024053341 -0.78907448 0.86029094 4286719801
-0.024053331 -0.78894013 0.86029071 4286719801
-0.024053315 -0.78875977 0.86031514 4286719801
-0.024053302 -0.7886042 0.86032897 4286719801
-0.024053281 -0.78839904 0.86037815 4286719801
-0.024053263 -0.78818685 0.86042726 4286719801
-0.024053248 -0.7880277 0.86044466 4286719801
-0.024053244 -0.78794295 0.86040211 4286719801
-0.024053251 -0.78794664 0.86030662 4286719801
-0.02405325 -0.78787249 0.86026055 4286719801
-0.024053231 -0.78767437 0.86030263 4286719801
-0.024053216 -0.78751177 0.86031646 4286719801
-0.024053207 -0.78738445 0.86030918 4286719801
-0.024053203 -0.78730679 0.86026663 4286719801
-0.024053197 -0.78720075 0.86024523 4286719801
-0.024053182 -0.78702742 0.86026967 4286719801
-0.024053171 -0.78689665 0.86026591 4286719801
-0.02405316 -0.7867552 0.86026561 4286719801
-0.024053141 -0.7865501 0.86030769 4286719801
-0.024053119 -0.78632373 0.86037093 4286719801
-0.024053117 -0.78625661 0.86032486 4286719801
-0.024053114 -0.78618246 0.86027879 4286719801
-0.024053104 -0.78605521 0.86027145 4286719801
-0.024053093 -0.78591377 0.86027122 4286719801
-0.024053089 -0.78582895 0.86023575 4286719801
-0.024053086 -0.78575128 0.86019313 4286719801
-0.024053076 -0.78561687 0.86019295 4286719801
-0.024053074 -0.78555691 0.86013269 4286719801
-0.024053067 -0.78544027 0.86012191 4286719801
-0.024053061 -0.78534132 0.86009347 4286719801
-0.024053065 -0.7853238 0.86001211 4286719801
-0.024053046 -0.78512925 0.86005068 4286719801
-0.024053006 -0.78474355 0.86022323 4286719801
-0.024053 -0.7846517 0.86018771 4286719801
-0.024053 -0.78459525 0.86013103 4286719801
-0.024052989 -0.7844609 0.86013079 4286719801
-0.024052972 -0.78426635 0.86016935 4286719801
-0.024052963 -0.78414971 0.86015856 4286719801
-0.024052953 -0.78401542 0.86015123 4286719801
-0.024052942 -0.78387749 0.86015451 4286719801
-0.024052948 -0.78387409 0.86005902 4286719801
-0.024052942 -0.78377867 0.86003417 4286719801
-0.024052903 -0.78341782 0.86018908 4286719801
-0.024052886 -0.78324097 0.86021703 4286719801
-0.02405289 -0.78320575 0.86014622 4286719801
-0.024052881 -0.78309262 0.86013192 4286719801
-0.024052866 -0.78291935 0.86015636 4286719801
-0.024052856 -0.78279561 0.86014551 4286719801
-0.02405286 -0.78276396 0.86007124 4286719801
-0.024052853 -0.78265435 0.86005336 4286719801
-0.024052847 -0.78255898 0.86002845 4286719801
-0.024052834 -0.78240693 0.86003876 4286719801
-0.024052825 -0.78227967 0.86003149 4286719801
-0.024052816 -0.78216296 0.8600207 4286719801
-0.024052802 -0.78200388 0.86003101 4286719801
-0.024052784 -0.78180933 0.86007661 4286719801
-0.024052775 -0.78168559 0.86006582 4286719801
-0.024052776 -0.78164327 0.8600021 4286719801
-0.024052765 -0.7815125 0.85999835 4286719801
-0.024052754 -0.78137457 0.86000162 4286719801
-0.024052745 -0.78124732 0.85999429 4286719801
-0.024052737 -0.78113067 0.8599835 4286719801
-0.024052732 -0.78103882 0.85994798 4286719801
-0.024052715 -0.78085488 0.85998303 4286719801
-0.024052691 -0.7806108 0.86006391 4286719801
-0.024052633 -0.77990013 0.86008739 4286719801
-0.024052627 -0.77980471 0.86006248 4286719801
-0.02405262 -0.77969867 0.86004108 4286719801
-0.024052609 -0.77955371 0.86005145 4286719801
-0.024052575 -0.77920002 0.86012155 4286719801
-0.024052564 -0.77906567 0.86012131 4286719801
-0.024052564 -0.77900922 0.86007172 4286719801
-0.024052564 -0.77895272 0.86001503 4286719801
-0.024052547 -0.77878296 0.86004299 4286719801
-0.024052534 -0.7786203 0.86006397 4286719801
-0.024052534 -0.77857441 0.86000377 4286719801
-0.024052525 -0.77845073 0.86000001 4286719801
-0.024052506 -0.77825969 0.8600421 4286719801
-0.024052504 -0.77819258 0.85999602 4286719801
-0.024052503 -0.77812904 0.85994643 4286719801
-0.024052497 -0.7780301 0.85992503 4286719801
-0.024052484 -0.77787453 0.85994595 4286719801
-0.024052458 -0.77762336 0.86003393 4286719801
-0.02405245 -0.77751732 0.86001253 4286719801
-0.024052447 -0.77744311 0.85997349 4286719801
-0.024052449 -0.77734435 0.85985309 4286719801
-0.024052449 -0.77730203 0.85978937 4286719801
-0.024052434 -0.7771287 0.8598209 4286719801
-0.024052413 -0.77692711 0.85987359 4286719801
-0.024052402 -0.77678919 0.85988396 4286719801
-0.024052288 -0.77536082 0.85988849 4286719801
-0.024052236 -0.77481264 0.86001128 4286719801
-0.026061052 -0.7901656 0.86010581 4286719801
-0.026061028 -0.78994983 0.86015844 4286719801
-0.026061 -0.78971285 0.8602252 4286719801
-0.026060971 -0.78945106 0.8603096 4286719801
-0.026060969 -0.78937334 0.86026704 4286719801
-0.026060957 -0.78924257 0.86026329 4286719801
-0.026060931 -0.78901267 0.86032301 4286719801
-0.02606093 -0.78893495 0.86028045 4286719801
-0.026060941 -0.78893512 0.86018145 4286719801
-0.026060944 -0.7888822 0.86012125 4286719801
-0.026060939 -0.78879029 0.86009282 4286719801
-0.026060922 -0.78860998 0.86011726 4286719801
-0.026060905 -0.78844374 0.86014169 4286719801
-0.02606089 -0.78828818 0.86014849 4286719801
-0.02606087 -0.78808653 0.86019415 4286719801
-0.026060842 -0.78784955 0.8602609 4286719801
-0.026060829 -0.78769749 0.86027122 4286719801
-0.026060831 -0.78765166 0.86021101 4286719801
-0.026060835 -0.78760582 0.86014378 4286719801
-0.026060827 -0.78749269 0.86012238 4286719801
-0.026060812 -0.78733003 0.8601433 4286719801
-0.026060797 -0.78717089 0.86016071 4286719801
-0.026060769 -0.7869339 0.86022747 4286719801
-0.026060767 -0.78685623 0.86018491 4286719801
-0.026060758 -0.78672892 0.86017764 4286719801
-0.026060738 -0.78653443 0.8602162 4286719801
-0.026060736 -0.78644609 0.8601771 4286719801
-0.026060713 -0.78624094 0.86022627 4286719801
-0.026060691 -0.78603226 0.86027187 4286719801
-0.026060697 -0.78601116 0.86019409 4286719801
-0.026060708 -0.78600782 0.8600986 4286719801
-0.026060706 -0.78593016 0.86005604 4286719801
-0.026060686 -0.78574622 0.86009103 4286719801
-0.026060665 -0.78554106 0.86013311 4286719801
-0.026060648 -0.78531134 0.86010092 4286719801
-0.026060635 -0.78515571 0.86011481 4286719801
-0.026060618 -0.78498602 0.86013567 4286719801
-0.02606057 -0.7846145 0.86030126 4286719801
-0.026060557 -0.78446597 0.86030805 4286719801
