# .PCD v0.7 - Point Cloud Data file format
VERSION 0.7
FIELDS x y z rgb
SIZE 4 4 4 4
TYPE F F F U
COUNT 1 1 1 1
WIDTH 1045
HEIGHT 1
VIEWPOINT 0 0 0 1 0 0 0
POINTS 1045
DATA ascii
0.025926877 -0.78570139 0.86077386 4278849266
0.025926884 -0.78559178 0.86075604 4278849266
0.025926888 -0.78548574 0.86073464 4278849266
0.025926903 -0.78530544 0.86075908 4278849266
0.02592691 -0.78519583 0.8607412 4278849266
0.025926912 -0.78511107 0.86070573 4278849266
0.025926974 -0.78445315 0.8608743 4278849266
0.025926979 -0.78435421 0.86084586 4278849266
0.025927009 -0.78406411 0.86095142 4278849266
0.025927013 -0.78397226 0.86092299 4278849266
0.025927003 -0.78397948 0.86082399 4278849266
0.025927005 -0.78388762 0.86078852 4278849266
0.025926985 -0.78397274 0.86063308 4278849266
0.025927 -0.78379589 0.86066109 4278849266
0.025927078 -0.78290117 0.86081159 4278849266
0.025927082 -0.78279513 0.86079019 4278849266
0.025927078 -0.78276342 0.86071587 4278849266
0.025927078 -0.78270346 0.86066276 4278849266
0.025927072 -0.78266817 0.86059201 4278849266
0.025927106 -0.78235334 0.86071521 4278849266
0.025927112 -0.78225434 0.86069381 4278849266
0.025927108 -0.78222269 0.86061949 4278849266
0.025927095 -0.7822476 0.8605029 4278849266
0.025927091 -0.78221238 0.86043209 4278849266
0.025927091 -0.78214884 0.8603825 4278849266
0.025927193 -0.78131711 0.86087257 4278849266
0.025927186 -0.78130668 0.86078411 4278849266
0.025927175 -0.78132099 0.86067808 4278849266
0.025927173 -0.78127158 0.86062145 4278849266
0.025927251 -0.78062755 0.86098099 4278849266
0.025927244 -0.78062773 0.86088198 4278849266
0.025927231 -0.78065616 0.86076891 4278849266
0.025927233 -0.78057843 0.86072636 4278849266
0.02592724 -0.78045827 0.86071908 4278849266
0.025927246 -0.78034514 0.86070472 4278849266
0.025927234 -0.78036654 0.86059165 4278849266
0.025927249 -0.78019679 0.86061966 4278849266
0.025927262 -0.78003412 0.86064059 4278849266
0.025927268 -0.77993166 0.8606227 4278849266
0.025927274 -0.77981853 0.8606084 4278849266
0.025927272 -0.77977622 0.86054468 4278849266
0.025927227 -0.78002769 0.8602587 4278849266
0.025927223 -0.77999604 0.86018443 4278849266
0.025927313 -0.77928114 0.86061454 4278849266
0.025927331 -0.77908301 0.8606708 4278849266
0.025927331 -0.77902657 0.86061412 4278849266
0.025927331 -0.77895594 0.86057156 4278849266
0.025927335 -0.77885699 0.86054313 4278849266
0.025927346 -0.77872616 0.86054647 4278849266
0.025927344 -0.77867323 0.86048627 4278849266
0.025927378 -0.77835834 0.8606236 4278849266
0.0259274 -0.77813548 0.86069041 4278849266
0.025927396 -0.77809668 0.86062318 4278849266
0.025927406 -0.77796233 0.86062998 4278849266
0.025927411 -0.77785981 0.86060506 4278849266
0.025927421 -0.77772903 0.8606084 4278849266
0.025927428 -0.77761239 0.86059761 4278849266
0.025927434 -0.77750987 0.86057973 4278849266
0.025927436 -0.77742505 0.86054426 4278849266
0.025927424 -0.77744293 0.86043465 4278849266
0.025927424 -0.77738643 0.86037803 4278849266
0.025927423 -0.7773335 0.86032486 4278849266
0.025927436 -0.77716732 0.86034936 4278849266
0.02592746 -0.77693385 0.86042672 4278849266
0.025927465 -0.77682775 0.86041242 4278849266
0.025927464 -0.77678192 0.86034518 4278849266
0.025927478 -0.77661574 0.86037672 4278849266
0.025927525 -0.77621233 0.8605811 4278849266
0.025927514 -0.77621955 0.860475 4278849266
0.02592751 -0.77619493 0.86040074 4278849266
0.025927525 -0.77601808 0.86043578 4278849266
0.025927542 -0.77583772 0.86047441 4278849266
0.025927538 -0.7757954 0.86041069 4278849266
0.025927559 -0.77558315 0.86047399 4278849266
0.025927588 -0.77530724 0.86057955 4278849266
0.025927601 -0.77515161 0.86060053 4278849266
0.025927609 -0.77503848 0.86059326 4278849266
0.025927614 -0.77492893 0.86057538 4278849266
0.02592762 -0.77481931 0.86056459 4278849266
0.025927616 -0.77478409 0.86049384 4278849266
0.025927616 -0.77472055 0.86044425 4278849266
0.025927626 -0.77458972 0.86044753 4278849266
0.02592764 -0.77442354 0.86047202 4278849266
0.02592765 -0.77428913 0.86047888 4278849266
0.025927642 -0.7742787 0.86039042 4278849266
0.025927646 -0.77419037 0.86035848 4278849266
0.025927663 -0.77401352 0.86040062 4278849266
0.02592767 -0.77389687 0.86038983 4278849266
0.025927663 -0.77387226 0.86030847 4278849266
0.025927654 -0.77388304 0.86020589 4278849266
0.02592765 -0.77384073 0.86014223 4278849266
0.025927652 -0.77377009 0.86009967 4278849266
0.025927648 -0.77373838 0.86002541 4278849266
0.025927646 -0.77368897 0.85996872 4278849266
0.025927652 -0.77358645 0.85995084 4278849266
0.025927644 -0.77356541 0.85986596 4278849266
0.025927635 -0.77356559 0.85976696 4278849266
0.025927642 -0.77345246 0.85975975 4278849266
0.025927659 -0.77327204 0.85979831 4278849266
0.025927657 -0.77322268 0.85974163 4278849266
0.025927652 -0.77319807 0.85966033 4278849266
0.025927654 -0.77312386 0.85962129 4278849266
0.02592765 -0.77308154 0.85955757 4278849266
0.025927648 -0.77303219 0.85949385 4278849266
0.025927648 -0.77296507 0.85945487 4278849266
0.025927648 -0.77290857 0.85939819 4278849266
0.025927648 -0.77284503 0.8593486 4278849266
0.025927646 -0.77279562 0.85929191 4278849266
0.025927639 -0.77277809 0.85920352 4278849266
0.02592762 -0.77284551 0.85905868 4278849266
0.025927613 -0.77283508 0.85897022 4278849266
0.025927627 -0.77266532 0.85899824 4278849266
0.025927639 -0.77253097 0.85900509 4278849266
0.025927642 -0.77243197 0.8589837 4278849266
0.025927654 -0.7722941 0.85899407 4278849266
0.025927659 -0.77218449 0.85898328 4278849266
0.025927654 -0.77216697 0.85889488 4278849266
0.025927644 -0.77216715 0.85879588 4278849266
0.025927646 -0.77208942 0.85876042 4278849266
0.025927648 -0.77201879 0.85871786 4278849266
0.025927648 -0.77195168 0.85867178 4278849266
0.02592765 -0.77187395 0.85863632 4278849266
0.025927648 -0.77182454 0.8585726 4278849266
0.025927642 -0.77179641 0.85850179 4278849266
0.023887508 -0.79151577 0.86105001 4278849266
0.023887521 -0.79143095 0.86100745 4278849266
0.023887524 -0.79139572 0.8609367 4278849266
0.023887545 -0.79126847 0.86092943 4278849266
0.02388759 -0.79101378 0.8610068 4278849266
0.023887586 -0.79101038 0.86091131 4278849266
0.023887699 -0.79035962 0.86106586 4278849266
0.023887673 -0.79047298 0.86089635 4278849266
0.023887821 -0.78958553 0.86092669 4278849266
0.023887919 -0.78900909 0.86103535 4278849266
0.023887916 -0.78900921 0.86093634 4278849266
0.023887992 -0.78851449 0.86080122 4278849266
0.023888037 -0.7882598 0.86087859 4278849266
0.023888065 -0.78809714 0.86089951 4278849266
0.023888079 -0.78800172 0.86086756 4278849266
0.023888104 -0.78785318 0.86087441 4278849266
0.023888193 -0.78728414 0.86078507 4278849266
0.023888206 -0.78720289 0.86074609 4278849266
0.023888227 -0.78707564 0.86073875 4278849266
0.023888275 -0.78679615 0.86083376 4278849266
0.023888294 -0.78668302 0.86081946 4278849266
0.023888296 -0.78665841 0.8607381 4278849266
0.023888301 -0.78660548 0.8606779 4278849266
0.02388837 -0.78620231 0.86076212 4278849266
0.02388843 -0.78586972 0.86089593 4278849266
0.023888459 -0.78569645 0.86092037 4278849266
0.02388843 -0.78583819 0.86072969 4278849266
0.023888417 -0.7858879 0.86059541 4278849266
0.023888441 -0.78574294 0.86060578 4278849266
0.023888482 -0.78550243 0.86067611 4278849266
0.023888517 -0.78530437 0.86071116 4278849266
0.023888528 -0.78521955 0.86067563 4278849266
0.023888553 -0.78507811 0.86068255 4278849266
0.023888618 -0.78472078 0.86083394 4278849266
0.023888638 -0.78458643 0.86083376 4278849266
0.023888631 -0.78460783 0.86072063 4278849266
0.023888646 -0.78451598 0.86068511 4278849266
0.023888677 -0.78432852 0.86072373 4278849266
0.023888698 -0.78420126 0.86071646 4278849266
0.023888715 -0.78409523 0.86069506 4278849266
0.02388872 -0.78404939 0.86062783 4278849266
0.023888731 -0.78396809 0.86058879 4278849266
0.023888767 -0.78376651 0.86063445 4278849266
0.023888787 -0.78363925 0.86062711 4278849266
0.023888813 -0.78348368 0.860641 4278849266
0.023888843 -0.78330332 0.86067259 4278849266
0.023888858 -0.78321141 0.8606441 4278849266
0.023888886 -0.78304172 0.86066508 4278849266
0.023888901 -0.78294981 0.86063665 4278849266
0.023888918 -0.78284025 0.86061877 4278849266
0.023888851 -0.78317308 0.86028695 4278849266
0.023888979 -0.78246194 0.86059344 4278849266
0.023888974 -0.78247273 0.86049092 4278849266
0.023888974 -0.78245521 0.86040956 4278849266
0.023889001 -0.78228897 0.86042696 4278849266
0.023889033 -0.78210509 0.86046201 4278849266
0.023889026 -0.78213 0.86035246 4278849266
0.023889037 -0.78204876 0.86031348 4278849266
0.023889095 -0.78172684 0.86044371 4278849266
0.023889134 -0.78150046 0.86050701 4278849266
0.023889145 -0.78142983 0.86045742 4278849266
0.023889149 -0.78138393 0.86039722 4278849266
0.023889214 -0.78103012 0.86055219 4278849266
0.023889257 -0.780779 0.86063308 4278849266
0.023889283 -0.78063047 0.86063993 4278849266
0.023889301 -0.78051382 0.86062914 4278849266
0.023889303 -0.78048211 0.86055487 4278849266
0.023889307 -0.78044337 0.86048758 4278849266
0.023889337 -0.78027004 0.86051917 4278849266
0.023889376 -0.78004724 0.86058593 4278849266
0.023889404 -0.77988458 0.86060691 4278849266
0.023889424 -0.77975374 0.86061025 4278849266
0.023889458 -0.77956629 0.86064881 4278849266
0.023889493 -0.77935761 0.86070859 4278849266
0.023889489 -0.77936482 0.86060256 4278849266
0.023889489 -0.77934372 0.86052471 4278849266
0.023889538 -0.77907133 0.86062682 4278849266
0.023889568 -0.77890158 0.86065483 4278849266
0.023889571 -0.77886277 0.8605876 4278849266
0.023889571 -0.77884525 0.86050624 4278849266
0.023889581 -0.7787711 0.86046016 4278849266
0.023889616 -0.77857298 0.86051643 4278849266
0.023889659 -0.77832538 0.86060083 4278849266
0.023889679 -0.77820516 0.86059362 4278849266
0.023889709 -0.77803189 0.86062515 4278849266
0.023889758 -0.77775592 0.86073077 4278849266
0.023889787 -0.77758616 0.86076581 4278849266
0.023889782 -0.77759343 0.86065978 4278849266
0.023889778 -0.77759713 0.86056429 4278849266
0.023889793 -0.77749819 0.86053586 4278849266
0.023889838 -0.77724701 0.86063093 4278849266
0.023889869 -0.77705956 0.86066949 4278849266
0.023889879 -0.77699244 0.86062342 4278849266
0.023889869 -0.77702802 0.86050326 4278849266
0.023889855 -0.77708125 0.86036551 4278849266
0.023889868 -0.77700001 0.86032647 4278849266
0.023889897 -0.77683026 0.86036158 4278849266
0.023889909 -0.77674544 0.86032605 4278849266
0.023889948 -0.77652967 0.86039287 4278849266
0.023889979 -0.77634573 0.86042792 4278849266
0.023890013 -0.77615124 0.86048067 4278849266
0.023890039 -0.77599919 0.86049807 4278849266
0.023890037 -0.7759887 0.86040968 4278849266
0.02389005 -0.77590388 0.86037415 4278849266
0.023890097 -0.7756421 0.86047274 4278849266
0.023890112 -0.77554315 0.8604514 4278849266
0.023890173 -0.77519995 0.86061698 4278849266
0.02389024 -0.7747758 0.86054558 4278849266
0.023890259 -0.77466977 0.86053127 4278849266
0.02389027 -0.77459204 0.86049581 4278849266
0.023890292 -0.77445769 0.86049557 4278849266
0.023890307 -0.77435517 0.86047775 4278849266
0.023890315 -0.77429515 0.86042464 4278849266
0.023890313 -0.77429527 0.86033267 4278849266
0.023890311 -0.77428484 0.86024427 4278849266
0.023890318 -0.7742213 0.86019468 4278849266
0.023890335 -0.77411878 0.86016977 4278849266
0.023890354 -0.77400565 0.8601625 4278849266
0.023890372 -0.77388901 0.86015171 4278849266
0.023890371 -0.77388209 0.8600598 4278849266
0.023890361 -0.77390701 0.85995024 4278849266
0.023890361 -0.77388591 0.85986537 4278849266
0.023890371 -0.77381885 0.85981923 4278849266
0.023890387 -0.77371991 0.85979789 4278849266
0.023890395 -0.77365988 0.85974473 4278849266
0.023890402 -0.77360338 0.8596952 4278849266
0.023890428 -0.77344775 0.85971612 4278849266
0.023890449 -0.77332401 0.85971236 4278849266
0.023890451 -0.7732994 0.85963106 4278849266
0.023890452 -0.77326417 0.85956025 4278849266
0.023890469 -0.77316523 0.85953891 4278849266
0.021898888 -0.7924217 0.86047167 4278849266
0.021898896 -0.79236525 0.86041498 4278849266
0.021899052 -0.79071629 0.86125368 4278849266
0.02189903 -0.79098189 0.86097485 4278849266
0.021899024 -0.79105991 0.86082649 4278849266
0.021899031 -0.79099637 0.86076981 4278849266
0.021899123 -0.79005533 0.86112887 4278849266
0.02189913 -0.79001302 0.86105806 4278849266
0.0218991 -0.79038143 0.86061323 4278849266
0.021899123 -0.79015154 0.86067289 4278849266
0.021899167 -0.78967738 0.86090547 4278849266
0.02189919 -0.78944397 0.86096871 4278849266
0.021899199 -0.78938037 0.86091912 4278849266
0.021899194 -0.78945488 0.86076725 4278849266
0.021899207 -0.78932053 0.86076701 4278849266
0.021899235 -0.78905892 0.8607524 4278849266
0.021899268 -0.78871572 0.86089683 4278849266
0.021899279 -0.78861678 0.86086833 4278849266
0.021899322 -0.78824949 0.86064148 4278849266
0.021899322 -0.78826022 0.86053896 4278849266
0.021899316 -0.78834891 0.86037999 4278849266
0.021899387 -0.78758454 0.86081004 4278849266
0.021899398 -0.78748912 0.86078513 4278849266
0.021899408 -0.7874043 0.86074257 4278849266
0.021899413 -0.78736556 0.86067533 4278849266
0.021899417 -0.78735864 0.86058342 4278849266
0.021899443 -0.78709328 0.86067134 4278849266
0.02189946 -0.78691292 0.86070287 4278849266
0.021899479 -0.78673261 0.86072731 4278849266
0.021899501 -0.78651685 0.86078 4278849266
0.021899514 -0.78639668 0.86076564 4278849266
0.021899527 -0.78627294 0.86075485 4278849266
0.021899544 -0.78609967 0.86077929 4278849266
0.021899551 -0.78604674 0.86071908 4278849266
0.021899547 -0.78610349 0.86058486 4278849266
0.021899557 -0.78601515 0.86055285 4278849266
0.021899644 -0.78507733 0.8611064 4278849266
0.021899667 -0.78485096 0.86116964 4278849266
0.021899659 -0.78495377 0.86099654 4278849266
0.021899652 -0.78506362 0.86083061 4278849266
0.021899644 -0.78517002 0.86066103 4278849266
0.021899648 -0.7851454 0.86057973 4278849266
0.02189967 -0.78492254 0.86063945 4278849266
0.021899695 -0.78467846 0.86071324 4278849266
0.021899708 -0.78454769 0.86070949 4278849266
0.021899719 -0.78444517 0.86068457 4278849266
0.021899732 -0.78431433 0.86068082 4278849266
0.02189975 -0.78414106 0.86070532 4278849266
0.021899762 -0.78403151 0.86068743 4278849266
0.021899767 -0.78398567 0.8606202 4278849266
0.021899771 -0.78396809 0.86053884 4278849266
0.021899782 -0.78387976 0.86050683 4278849266
0.021899814 -0.78355074 0.86063713 4278849266
0.021899821 -0.78348362 0.86059105 4278849266
0.021899818 -0.78354752 0.86044973 4278849266
0.021899827 -0.78345567 0.8604213 4278849266
0.02189984 -0.78333902 0.86040342 4278849266
0.021899911 -0.7825852 0.86083704 4278849266
0.021899911 -0.7826066 0.86072391 4278849266
0.021899922 -0.78249353 0.86070961 4278849266
0.021899922 -0.78252554 0.86059296 4278849266
0.021899922 -0.78253633 0.86049044 4278849266
0.021899965 -0.78209752 0.86070186 4278849266
0.02189998 -0.78195614 0.86070162 4278849266
0.021899991 -0.78183943 0.86069083 4278849266
0.021900004 -0.78172636 0.86067647 4278849266
0.021900009 -0.78168404 0.86061281 4278849266
0.021900017 -0.78162402 0.86055964 4278849266
0.021900024 -0.78154629 0.86051708 4278849266
0.021900034 -0.78147566 0.86046749 4278849266
0.021900045 -0.78136253 0.86045319 4278849266
0.021900069 -0.78112912 0.86052346 4278849266
0.021900091 -0.78089565 0.8605938 4278849266
0.021900106 -0.78075069 0.86059707 4278849266
0.021900116 -0.78067648 0.86055809 4278849266
0.021900123 -0.78061295 0.8605085 4278849266
0.02190014 -0.7804538 0.86052591 4278849266
0.021900157 -0.78028762 0.86055034 4278849266
0.021900168 -0.78018159 0.86052895 4278849266
0.021900186 -0.77998704 0.8605746 4278849266
0.021900203 -0.77983141 0.86059558 4278849266
0.021900211 -0.77977139 0.86054242 4278849266
0.021900207 -0.77983886 0.86039758 4278849266
0.021900212 -0.77979654 0.86032677 4278849266
0.021900246 -0.77943206 0.86049944 4278849266
0.021900261 -0.77930129 0.86050272 4278849266
0.021900274 -0.77917755 0.86049902 4278849266
0.021900292 -0.778983 0.86054462 4278849266
0.021900304 -0.77888048 0.86051971 4278849266
0.021900309 -0.77884525 0.86044896 4278849266
0.021900319 -0.77876043 0.86042053 4278849266
0.021900335 -0.77858716 0.86045206 4278849266
0.021900343 -0.77852714 0.86039889 4278849266
0.021900347 -0.77851671 0.86031049 4278849266
0.021900361 -0.77837527 0.86031735 4278849266
0.021900382 -0.77815241 0.86038417 4278849266
0.021900402 -0.77796143 0.86043334 4278849266
0.02190041 -0.77790141 0.86038017 4278849266
0.021900414 -0.77787322 0.86030239 4278849266
0.021900421 -0.7778132 0.86024922 4278849266
0.021900434 -0.77768952 0.86024547 4278849266
0.021900455 -0.77748078 0.86030525 4278849266
0.021900488 -0.77712697 0.86047435 4278849266
0.021900496 -0.77707046 0.86041766 4278849266
0.021900497 -0.77705646 0.86033285 4278849266
0.021900507 -0.77698231 0.86028671 4278849266
0.021900536 -0.77666742 0.86043113 4278849266
0.02190057 -0.77631712 0.86059672 4278849266
0.021900576 -0.77627128 0.86052948 4278849266
0.021900579 -0.77626789 0.86043406 4278849266
0.021900587 -0.77620435 0.8603915 4278849266
0.0219006 -0.77608061 0.86038774 4278849266
0.021900734 -0.7747972 0.86038208 4278849266
0.02190076 -0.77455324 0.86037105 4278849266
0.021900782 -0.77431267 0.86045551 4278849266
0.021900805 -0.77409691 0.86052233 4278849266
0.021900812 -0.77403337 0.86047274 4278849266
0.021900812 -0.77404058 0.86037374 4278849266
0.021900818 -0.77399826 0.86031002 4278849266
0.021900827 -0.77393121 0.86026394 4278849266
0.021900833 -0.7738747 0.86020726 4278849266
0.021900836 -0.77386069 0.86012238 4278849266
0.021900838 -0.77385736 0.86002696 4278849266
0.021900844 -0.77381855 0.85995972 4278849266
0.021900849 -0.77378333 0.85988891 4278849266
0.021900855 -0.77372682 0.85983932 4278849266
0.021900941 -0.77300274 0.85941738 4278849266
0.021901019 -0.77235669 0.85884708 4278849266
0.019897617 -0.7919904 0.86079335 4278849266
0.01989756 -0.79225606 0.86051446 4278849266
0.019897738 -0.79122293 0.86092991 4278849266
0.019897712 -0.79131871 0.86077094 4278849266
0.019897742 -0.79113483 0.8607989 4278849266
0.019897781 -0.79089427 0.86086923 4278849266
0.019897807 -0.79072452 0.86089015 4278849266
0.019897828 -0.79058313 0.86088985 4278849266
0.019897835 -0.79050893 0.86084378 4278849266
0.019897828 -0.7905162 0.86074483 4278849266
0.019897813 -0.79055172 0.86062467 4278849266
0.019897934 -0.78989351 0.86097705 4278849266
0.01989793 -0.78987598 0.86089569 4278849266
0.01989794 -0.78979123 0.86085314 4278849266
0.01989796 -0.7896533 0.86085641 4278849266
0.019897928 -0.78978443 0.86066931 4278849266
0.01989793 -0.78973508 0.86060554 4278849266
0.019897951 -0.78955841 0.86053455 4278849266
0.019898007 -0.78923291 0.86066127 4278849266
0.019898072 -0.78886849 0.8608197 4278849266
0.019898102 -0.78867394 0.86085826 4278849266
0.019898124 -0.78845149 0.86071998 4278849266
0.019898156 -0.78825343 0.86076206 4278849266
0.019898184 -0.78807658 0.86079007 4278849266
0.019898217 -0.78786439 0.86083919 4278849266
0.019898247 -0.78768045 0.86087424 4278849266
0.019898249 -0.78763813 0.86080343 4278849266
0.019898264 -0.78752148 0.86079264 4278849266
0.019898282 -0.78738713 0.86078537 4278849266
0.019898314 -0.78719264 0.86082387 4278849266
0.019898351 -0.78689581 0.86073852 4278849266
0.019898353 -0.78681827 0.86060405 4278849266
0.019898269 -0.7872113 0.86023349 4278849266
0.019898489 -0.78594118 0.86072981 4278849266
0.019898504 -0.7858246 0.86071187 4278849266
0.019898545 -0.78558052 0.86078572 4278849266
0.019898577 -0.78537887 0.86083132 4278849266
0.019898592 -0.78527284 0.86080998 4278849266
0.019898605 -0.78517038 0.86078501 4278849266
0.01989861 -0.78510326 0.8607319 4278849266
0.019898614 -0.78504682 0.86067522 4278849266
0.019898621 -0.78497267 0.86063617 4278849266
0.019898638 -0.78485245 0.86062181 4278849266
0.019898644 -0.78478539 0.8605687 4278849266
0.019898655 -0.78469354 0.86054021 4278849266
0.019898687 -0.78449899 0.86057878 4278849266
0.019898703 -0.78438234 0.86056799 4278849266
0.019898731 -0.7841984 0.86059594 4278849266
0.019898806 -0.78377736 0.86079675 4278849266
0.019898828 -0.78362882 0.86080354 4278849266
0.019898819 -0.78363961 0.86070102 4278849266
0.019898809 -0.78365397 0.86059499 4278849266
0.019898854 -0.78339219 0.86067939 4278849266
0.019898886 -0.78319412 0.86072147 4278849266
0.019898904 -0.78305978 0.86072123 4278849266
0.019898916 -0.78297144 0.86068928 4278849266
0.019898929 -0.78286541 0.86066788 4278849266
0.01989894 -0.78276998 0.86063588 4278849266
0.019898962 -0.78262502 0.86064625 4278849266
0.019898986 -0.78246588 0.86066365 4278849266
0.019899003 -0.78234571 0.86064929 4278849266
0.01989902 -0.78222549 0.86064202 4278849266
0.019899031 -0.78213364 0.86060649 4278849266
0.01989916 -0.78140831 0.86092699 4278849266
0.019899126 -0.78154302 0.86073631 4278849266
0.019899102 -0.78163165 0.86057734 4278849266
0.019899094 -0.78163534 0.86048192 4278849266
0.019899106 -0.78153998 0.86044991 4278849266
0.019899163 -0.78117216 0.86051995 4278849266
0.019899191 -0.78099883 0.86055154 4278849266
0.019899199 -0.7809211 0.86050898 4278849266
0.019899217 -0.78079385 0.86050165 4278849266
0.019899242 -0.78063118 0.86052257 4278849266
0.019899242 -0.78059953 0.8604483 4278849266
0.019899243 -0.78055722 0.86038458 4278849266
0.019899258 -0.78044057 0.8603667 4278849266
0.019899305 -0.78016812 0.86046875 4278849266
0.019899337 -0.77997363 0.86051434 4278849266
0.019899359 -0.77982509 0.86052829 4278849266
0.019899366 -0.77975446 0.86048573 4278849266
0.01989937 -0.77969795 0.86042905 4278849266
0.019899419 -0.77942199 0.86053461 4278849266
0.019899458 -0.77918857 0.86061198 4278849266
0.019899473 -0.77907544 0.86059767 4278849266
0.019899486 -0.77897644 0.86057627 4278849266
0.019899495 -0.77889168 0.86054075 4278849266
0.019899497 -0.77884585 0.86047351 4278849266
0.019899508 -0.77876103 0.86044508 4278849266
0.019899629 -0.77807456 0.86076212 4278849266
0.019899629 -0.77804291 0.86068779 4278849266
0.019899612 -0.77808911 0.86055708 4278849266
0.019899612 -0.77805382 0.86048627 4278849266
0.019899623 -0.77796197 0.86045784 4278849266
0.019899633 -0.77788073 0.8604188 4278849266
0.019899614 -0.77794111 0.86027396 4278849266
0.019899705 -0.77740687 0.86048162 4278849266
0.019899728 -0.77726191 0.86049199 4278849266
0.019899739 -0.77717 0.86046356 4278849266
0.019899752 -0.77706754 0.86044568 4278849266
0.019899756 -0.77701455 0.86038548 4278849266
0.019899782 -0.77685189 0.86041349 4278849266
0.019899813 -0.77665031 0.86046618 4278849266
0.019899841 -0.77647698 0.86049771 4278849266
0.019899879 -0.77625763 0.86056805 4278849266
0.019899899 -0.77611977 0.86057132 4278849266
0.019899901 -0.77607036 0.86051464 4278849266
0.019899907 -0.77600682 0.86046505 4278849266
0.019899925 -0.77587956 0.86046481 4278849266
0.019899942 -0.77576643 0.86045051 4278849266
0.019899983 -0.77548355 0.86047119 4278849266
0.019900003 -0.77535272 0.86047453 4278849266
0.019900005 -0.77527165 0.86033648 4278849266
0.01990002 -0.77515852 0.86032927 4278849266
0.019900061 -0.77488273 0.86034292 4278849266
0.01990011 -0.77460676 0.86045557 4278849266
0.019900123 -0.77450073 0.86043417 4278849266
0.019900149 -0.77434158 0.86045861 4278849266
0.019900175 -0.77417183 0.86049366 4278849266
0.019900179 -0.77411538 0.86043704 4278849266
0.019900177 -0.7740978 0.86035568 4278849266
0.019900179 -0.77404845 0.86029196 4278849266
0.019900188 -0.77396363 0.86026353 4278849266
0.019900197 -0.77388942 0.86022449 4278849266
0.019900193 -0.7738719 0.86013609 4278849266
0.019900197 -0.77381188 0.86009002 4278849266
0.019900205 -0.77374125 0.86004037 4278849266
0.019900201 -0.7737273 0.85995549 4278849266
0.019900195 -0.77372038 0.85986358 4278849266
0.019900184 -0.77373469 0.85975754 4278849266
0.01990019 -0.77367818 0.85970795 4278849266
0.019900214 -0.77351552 0.85972887 4278849266
0.019900229 -0.77341306 0.85971105 4278849266
0.019900233 -0.77335304 0.85965788 4278849266
0.019900238 -0.77329302 0.85961181 4278849266
0.019900242 -0.77323651 0.85955513 4278849266
0.019900244 -0.77319419 0.85949147 4278849266
0.019900246 -0.77314484 0.85942775 4278849266
0.019900249 -0.77309185 0.85937458 4278849266
0.017973399 -0.7915448 0.86056441 4278849266
0.017973414 -0.79121578 0.86069471 4278849266
0.017973427 -0.79090798 0.86081088 4278849266
0.017973432 -0.7907666 0.86081064 4278849266
0.01797344 -0.79058975 0.86083156 4278849266
0.017973445 -0.79045892 0.8608278 4278849266
0.017973442 -0.79054052 0.86067587 4278849266
0.017973447 -0.79044157 0.86064744 4278849266
0.017973453 -0.79027539 0.86066484 4278849266
0.017973466 -0.78999233 0.86076337 4278849266
0.01797347 -0.78990406 0.86072433 4278849266
0.017973484 -0.78955734 0.86087227 4278849266
0.017973484 -0.78955394 0.86077678 4278849266
0.017973486 -0.7895152 0.86070246 4278849266
0.017973494 -0.78933126 0.86073756 4278849266
0.017973512 -0.7889033 0.86083937 4278849266
0.017973518 -0.78875124 0.86084974 4278849266
0.017973525 -0.78860629 0.86085302 4278849266
0.017973531 -0.78846484 0.86085278 4278849266
0.017973538 -0.78827387 0.86088783 4278849266
0.017973572 -0.78747827 0.86096078 4278849266
0.017973576 -0.78740054 0.86091822 4278849266
0.017973579 -0.78729808 0.86089325 4278849266
0.017973581 -0.78726637 0.86081898 4278849266
0.017973574 -0.78742933 0.86060715 4278849266
0.017973607 -0.78665853 0.8606624 4278849266
0.017973624 -0.78627658 0.8607325 4278849266
0.017973626 -0.78622365 0.8606723 4278849266
0.017973617 -0.78642201 0.8604393 4278849266
0.017973639 -0.78589833 0.8607071 4278849266
0.017973645 -0.78577459 0.86069632 4278849266
0.01797365 -0.78564024 0.86069608 4278849266
0.017973656 -0.78552359 0.8606782 4278849266
0.017973658 -0.78548127 0.86061454 4278849266
0.017973663 -0.78531504 0.86063194 4278849266
0.017973671 -0.78516299 0.86064225 4278849266
0.017973676 -0.7850287 0.86064202 4278849266
0.017973689 -0.78471732 0.86076176 4278849266
0.017973693 -0.78461486 0.86073685 4278849266
0.017973695 -0.78458315 0.86066252 4278849266
0.017973699 -0.78448063 0.86063761 4278849266
0.017973708 -0.78429675 0.86067265 4278849266
0.017973715 -0.784127 0.86069363 4278849266
0.017973715 -0.78409886 0.86061579 4278849266
0.017973712 -0.78419459 0.86045682 4278849266
0.017973717 -0.78404254 0.8604672 4278849266
0.017973738 -0.78356838 0.86069971 4278849266
0.01797374 -0.78355086 0.86061841 4278849266
0.017973738 -0.78355807 0.86051232 4278849266
0.017973755 -0.78319013 0.86067438 4278849266
0.017973755 -0.783162 0.86060363 4278849266
0.017973771 -0.78279799 0.8604722 4278849266
0.017973779 -0.78259999 0.86051428 4278849266
0.017973777 -0.78263569 0.86030221 4278849266
0.017973796 -0.78222877 0.86048895 4278849266
0.017973805 -0.78200948 0.86055219 4278849266
0.017973812 -0.78180784 0.86059785 4278849266
0.017973816 -0.78173369 0.86055177 4278849266
0.017973822 -0.78159934 0.86055154 4278849266
0.017973835 -0.78130215 0.86066419 4278849266
0.017973838 -0.7811926 0.86064631 4278849266
0.017973838 -0.78121048 0.86053675 4278849266
0.017973855 -0.78080744 0.8605361 4278849266
0.017973863 -0.78065538 0.86054647 4278849266
0.017973868 -0.78050685 0.86056036 4278849266
0.017973874 -0.78038311 0.86054951 4278849266
0.017973883 -0.78014982 0.86052793 4278849266
0.017973885 -0.78011101 0.8604607 4278849266
0.017973885 -0.7801041 0.86036873 4278849266
0.017973891 -0.77997684 0.86036855 4278849266
0.017973892 -0.77991325 0.86031896 4278849266
0.017973894 -0.77986741 0.86025167 4278849266
0.017973909 -0.77952069 0.86041379 4278849266
0.01797392 -0.77929074 0.86048764 4278849266
0.017973943 -0.77877408 0.86076963 4278849266
0.017973939 -0.77884859 0.8606177 4278849266
0.017973937 -0.77885938 0.86051518 4278849266
0.017973939 -0.77883118 0.86043739 4278849266
0.017973943 -0.77872872 0.86041951 4278849266
0.017973952 -0.77854127 0.86045814 4278849266
0.017973948 -0.77859807 0.86032385 4278849266
0.017973945 -0.7787044 0.86014724 4278849266
0.01797395 -0.77857006 0.86014706 4278849266
0.017973965 -0.77822334 0.86030906 4278849266
0.017973974 -0.77799338 0.86038297 4278849266
0.017973976 -0.77793336 0.86032981 4278849266
0.017973974 -0.77796894 0.86020964 4278849266
0.017973976 -0.77792662 0.86013889 4278849266
0.017973991 -0.77759397 0.86029392 4278849266
0.017974 -0.77738887 0.86035013 4278849266
0.01797401 -0.77716243 0.86042047 4278849266
0.017974015 -0.77703869 0.86041677 4278849266
0.017974021 -0.77688313 0.86043769 4278849266
0.017974028 -0.77674526 0.86044097 4278849266
0.017974034 -0.77659672 0.86045492 4278849266
0.017974036 -0.77656144 0.8603912 4278849266
0.017974032 -0.7766183 0.86024988 4278849266
0.017974038 -0.7765016 0.86023909 4278849266
0.017974047 -0.7762717 0.86031294 4278849266
0.017974053 -0.77616209 0.86030215 4278849266
0.017974058 -0.77599943 0.86032307 4278849266
0.017974086 -0.77537364 0.86031145 4278849266
0.017974092 -0.77522516 0.86032534 4278849266
0.017974099 -0.77504832 0.86036038 4278849266
0.017974105 -0.77491397 0.8603673 4278849266
0.017974112 -0.77473003 0.86040938 4278849266
0.01797412 -0.77455676 0.86044091 4278849266
0.017974123 -0.77449673 0.8603878 4278849266
0.017974127 -0.7744084 0.86036289 4278849266
0.017974136 -0.77416104 0.86025643 4278849266
0.017974135 -0.77419305 0.86013979 4278849266
0.017974138 -0.77411181 0.86010075 4278849266
0.017974146 -0.77394933 0.86002982 4278849266
0.017974151 -0.77382201 0.86002958 4278849266
0.017974155 -0.77373016 0.86000115 4278849266
0.017974157 -0.77368426 0.85994101 4278849266
0.017974159 -0.77363843 0.85988081 4278849266
0.017974161 -0.77357841 0.85982764 4278849266
0.017974162 -0.77352548 0.85977453 4278849266
0.017974166 -0.77346188 0.85972494 4278849266
0.01797417 -0.77335602 0.85961163 4278849266
0.017974172 -0.77330309 0.85955143 4278849266
0.017974176 -0.77323246 0.85950887 4278849266
0.01588453 -0.7916292 0.86098522 4278849266
0.015884541 -0.79154438 0.86094272 4278849266
0.015884705 -0.79028529 0.86123055 4278849266
0.015884768 -0.78978348 0.86109543 4278849266
0.015884753 -0.78989333 0.86092234 4278849266
0.015884755 -0.78987229 0.86083746 4278849266
0.015884772 -0.78974503 0.86083019 4278849266
0.015884785 -0.78964603 0.86080176 4278849266
0.015884811 -0.78944445 0.86084741 4278849266
0.015884822 -0.7893526 0.86081189 4278849266
0.015884774 -0.78972083 0.86045891 4278849266
0.015884779 -0.78968561 0.86038816 4278849266
0.015884889 -0.7888329 0.86078632 4278849266
0.01588494 -0.78844756 0.86076093 4278849266
0.015884947 -0.78838754 0.86070782 4278849266
0.015884982 -0.78811163 0.86080635 4278849266
0.015885016 -0.78786045 0.8608802 4278849266
0.015885023 -0.78779691 0.86083061 4278849266
0.015885029 -0.7877546 0.86075979 4278849266
0.01588504 -0.78766626 0.86072785 4278849266
0.015885068 -0.78745407 0.86077702 4278849266
0.015885089 -0.78728431 0.86079794 4278849266
0.015885102 -0.78718185 0.86077303 4278849266
0.01588512 -0.78704041 0.86077279 4278849266
0.015885143 -0.78687423 0.86079025 4278849266
0.015885165 -0.78669739 0.86081821 4278849266
0.015885182 -0.78656656 0.86081445 4278849266
0.015885187 -0.78652072 0.86074722 4278849266
0.015885202 -0.78641117 0.8607294 4278849266
0.015885247 -0.78606445 0.86087024 4278849266
0.01588526 -0.78595841 0.86084884 4278849266
0.015885269 -0.7858842 0.86080277 4278849266
0.01588528 -0.78579944 0.8607673 4278849266
0.015885293 -0.7857005 0.86073887 4278849266
0.015885307 -0.78559089 0.86072099 4278849266
0.015885327 -0.78544241 0.86072785 4278849266
0.015885351 -0.78525496 0.86075932 4278849266
0.015885355 -0.7852127 0.8606956 4278849266
0.015885357 -0.78520221 0.86060721 4278849266
0.015885374 -0.78506786 0.86060703 4278849266
0.015885407 -0.78482026 0.86068439 4278849266
0.015885433 -0.78461158 0.86073005 4278849266
0.015885452 -0.78446662 0.86073333 4278849266
0.015885461 -0.78439242 0.86069429 4278849266
0.015885476 -0.78427225 0.86067998 4278849266
0.015885491 -0.78416622 0.86065859 4278849266
0.0158855 -0.78408498 0.86061954 4278849266
0.01588551 -0.78401428 0.86056995 4278849266
0.015885513 -0.78398615 0.8604992 4278849266
0.015885547 -0.78372085 0.86058718 4278849266
0.015885565 -0.7835865 0.86058694 4278849266
0.015885575 -0.78351229 0.86054087 4278849266
0.015885588 -0.78340626 0.86051947 4278849266
0.015885601 -0.78330731 0.86049104 4278849266
0.015885606 -0.78326148 0.86043084 4278849266
0.015885642 -0.78298199 0.86053294 4278849266
0.015885668 -0.78278393 0.86057508 4278849266
0.015885681 -0.78268498 0.86054665 4278849266
0.015885692 -0.78260016 0.86051112 4278849266
0.015885707 -0.78247648 0.86050028 4278849266
0.015885726 -0.78234214 0.8605001 4278849266
0.015885748 -0.78216177 0.86053163 4278849266
0.01588577 -0.78198844 0.86055613 4278849266
0.015885774 -0.78196383 0.8604818 4278849266
0.015885783 -0.78188968 0.86043572 4278849266
0.015885834 -0.78150046 0.86061895 4278849266
0.01588588 -0.78113961 0.86077392 4278849266
0.015885873 -0.78120345 0.8606326 4278849266
0.015885876 -0.78116822 0.86056185 4278849266
0.015885914 -0.78087813 0.8606745 4278849266
0.015885925 -0.78079331 0.86063904 4278849266
0.015885932 -0.78072977 0.86058235 4278849266
0.015885945 -0.78062725 0.86056453 4278849266
0.015885966 -0.78047526 0.86057484 4278849266
0.015885957 -0.7805391 0.86043358 4278849266
0.015885979 -0.78036934 0.86046159 4278849266
0.015885992 -0.78026688 0.86043668 4278849266
0.015885998 -0.78022099 0.86037648 4278849266
0.015886027 -0.77999812 0.86044329 4278849266
0.015886057 -0.77976823 0.86051714 4278849266
0.015886076 -0.77961618 0.86053461 4278849266
0.015886093 -0.77948183 0.86053437 4278849266
0.015886109 -0.77936161 0.8605271 4278849266
0.015886126 -0.77923077 0.8605234 4278849266
0.015886143 -0.7791 0.86052668 4278849266
0.015886156 -0.779001 0.86050534 4278849266
0.015886173 -0.77885962 0.8605122 4278849266
0.015886176 -0.77883852 0.86042726 4278849266
0.015886189 -0.77873248 0.86041296 4278849266
0.015886217 -0.77852023 0.86046922 4278849266
0.015886268 -0.77813101 0.86066657 4278849266
0.015886268 -0.7781347 0.86056405 4278849266
0.015886268 -0.77812779 0.86047208 4278849266
0.015886275 -0.77806777 0.86041898 4278849266
0.015886284 -0.77800065 0.8603729 4278849266
0.015886292 -0.77793002 0.86033034 4278849266
0.015886309 -0.77780277 0.86032307 4278849266
0.015886325 -0.77767903 0.86031938 4278849266
0.015886376 -0.7772969 0.86050969 4278849266
0.015886391 -0.77716959 0.86050946 4278849266
0.015886398 -0.77711314 0.86045283 4278849266
0.015886407 -0.77704602 0.86040676 4278849266
0.015886415 -0.776986 0.86035359 4278849266
0.015886441 -0.77677733 0.86041337 4278849266
0.015886482 -0.77646595 0.86055428 4278849266
0.015886497 -0.77635288 0.86053997 4278849266
0.015886534 -0.77606273 0.86065972 4278849266
0.015886508 -0.77625757 0.86041605 4278849266
0.015886506 -0.77626836 0.86031353 4278849266
0.01588653 -0.77608091 0.86035919 4278849266
0.015886569 -0.7757802 0.86048245 4278849266
0.015886575 -0.77573788 0.86041874 4278849266
0.015886575 -0.77573448 0.86032331 4278849266
0.015886592 -0.77561074 0.86031955 4278849266
0.015886616 -0.7754162 0.8603723 4278849266
0.01588662 -0.77538806 0.86029446 4278849266
0.01588664 -0.77522892 0.86031896 4278849266
0.015886661 -0.77507687 0.86033642 4278849266
0.015886679 -0.77493185 0.86034679 4278849266
0.015886704 -0.77474087 0.86039597 4278849266
0.015886711 -0.77468795 0.86034286 4278849266
0.015886713 -0.77465975 0.86026502 4278849266
0.013985384 -0.79181463 0.86092293 4278849266
0.013985385 -0.79170507 0.86089796 4278849266
0.013985379 -0.79171228 0.86079901 4278849266
0.013985403 -0.79095548 0.86093205 4278849266
0.013985401 -0.79089195 0.86087537 4278849266
0.013985396 -0.79088145 0.86078697 4278849266
0.013985394 -0.7908321 0.86072326 4278849266
0.013985393 -0.79075795 0.86067712 4278849266
0.013985398 -0.79057401 0.86071217 4278849266
0.013985409 -0.79020268 0.86077166 4278849266
0.013985409 -0.79011434 0.86073261 4278849266
0.013985416 -0.78992695 0.86077118 4278849266
0.013985412 -0.78988463 0.86070037 4278849266
0.013985415 -0.78975379 0.86069661 4278849266
0.013985431 -0.78940356 0.86084098 4278849266
0.013985427 -0.78937536 0.86076319 4278849266
0.013985424 -0.78933305 0.86069942 4278849266
0.01398545 -0.7886433 0.86088562 4278849266
0.013985449 -0.78856564 0.86084306 4278849266
0.013985448 -0.78850561 0.86078995 4278849266
0.013985444 -0.78846329 0.8607192 4278849266
0.01398544 -0.78844577 0.86063784 4278849266
0.013985435 -0.78843528 0.86054236 4278849266
0.01398545 -0.78808856 0.86069024 4278849266
0.013985472 -0.78765333 0.86089808 4278849266
0.01398548 -0.78742695 0.86095428 4278849266
0.01398548 -0.78733861 0.86092228 4278849266
0.013985475 -0.78733528 0.86082685 4278849266
0.013985469 -0.78733188 0.86073136 4278849266
0.01398547 -0.78722584 0.86070997 4278849266
0.013985476 -0.78704548 0.8607415 4278849266
0.013985476 -0.78694302 0.86071658 4278849266
0.013985477 -0.78683698 0.86068809 4278849266
0.013985479 -0.78671324 0.8606773 4278849266
0.013985481 -0.7865966 0.86066645 4278849266
0.013985474 -0.78663218 0.86054635 4278849266
0.013985483 -0.78639162 0.86061662 4278849266
0.01398549 -0.78617585 0.86066931 4278849266
0.013985485 -0.78617251 0.86057383 4278849266
0.013985489 -0.78602755 0.86057711 4278849266
0.013985507 -0.78563833 0.86075324 4278849266
0.013985503 -0.78560311 0.86068243 4278849266
0.013985499 -0.78558201 0.86059755 4278849266
0.01398552 -0.78498077 0.86073089 4278849266
0.013985517 -0.78494555 0.86066008 4278849266
0.013985514 -0.78489614 0.86059642 4278849266
0.013985514 -0.78481489 0.86055732 4278849266
0.013985517 -0.78466284 0.86056769 4278849266
0.013985529 -0.78439045 0.8606627 4278849266
0.013985539 -0.78413928 0.86074358 4278849266
0.013985544 -0.78397661 0.86075747 4278849266
0.01398555 -0.78377855 0.86079955 4278849266
0.013985547 -0.78373271 0.86073935 4278849266
0.013985544 -0.783701 0.86066502 4278849266
0.013985548 -0.78353482 0.86068243 4278849266
0.013985554 -0.78336859 0.86070693 4278849266
0.013985546 -0.78339356 0.86059028 4278849266
0.013985542 -0.78337246 0.86051244 4278849266
0.013985552 -0.78312129 0.86059332 4278849266
0.013985567 -0.78280288 0.8607201 4278849266
0.013985566 -0.78272516 0.86067754 4278849266
0.013985561 -0.78271121 0.8605926 4278849266
0.013985553 -0.78274322 0.86047602 4278849266
0.013985552 -0.7826761 0.86042285 4278849266
0.013985552 -0.78258073 0.86039793 4278849266
0.013985567 -0.78226227 0.86052471 4278849266
0.013985571 -0.78208899 0.86054915 4278849266
0.01398558 -0.78187674 0.86060536 4278849266
0.013985581 -0.78177428 0.86058044 4278849266
0.013985569 -0.78186297 0.86042148 4278849266
0.013985567 -0.78180295 0.86036831 4278849266
0.013985577 -0.78155178 0.86044919 4278849266
0.013985567 -0.78163332 0.86029732 4278849266
0.013985607 -0.78073472 0.86064225 4278849266
0.013985607 -0.78064287 0.86061382 4278849266
0.013985592 -0.78078461 0.86041611 4278849266
0.013985595 -0.78065735 0.86041588 4278849266
0.013985598 -0.780523 0.86041564 4278849266
0.013985602 -0.78036737 0.86042953 4278849266
0.013985605 -0.78022599 0.86042929 4278849266
0.013985611 -0.78004915 0.86046433 4278849266
0.013985607 -0.78002453 0.86039001 4278849266
0.013985606 -0.7799468 0.86034751 4278849266
0.013985611 -0.77976996 0.86038256 4278849266
0.01398561 -0.77963227 0.86028683 4278849266
0.013985615 -0.77945185 0.8603254 4278849266
0.013985638 -0.77902013 0.86055094 4278849266
0.013985632 -0.77902031 0.86045194 4278849266
0.01398563 -0.77896029 0.86039883 4278849266
0.013985635 -0.77880472 0.86041975 4278849266
0.013985638 -0.77867389 0.860416 4278849266
0.013985648 -0.77834147 0.86047202 4278849266
0.013985649 -0.77823544 0.86045063 4278849266
0.01398565 -0.77814358 0.86042213 4278849266
0.013985653 -0.77799505 0.86043608 4278849266
0.013985662 -0.77777928 0.86050284 4278849266
0.013985661 -0.77770156 0.86046028 4278849266
0.013985675 -0.7774114 0.86058003 4278849266
0.013985672 -0.77736205 0.86052334 4278849266
0.01398568 -0.7771498 0.86058664 4278849266
0.013985682 -0.77703667 0.86057228 4278849266
0.01398568 -0.77696955 0.8605262 4278849266
0.013985677 -0.77694499 0.86044484 4278849266
0.013985664 -0.77705491 0.86026472 4278849266
0.013985664 -0.77697361 0.86023277 4278849266
0.013985666 -0.77683574 0.86023605 4278849266
0.013985681 -0.77652436 0.86036992 4278849266
0.01398568 -0.77646083 0.86032736 4278849266
0.013985679 -0.77639723 0.86027777 4278849266
0.013985686 -0.77619916 0.86032695 4278849266
0.013985696 -0.7759586 0.86041135 4278849266
0.013985698 -0.77584195 0.86040056 4278849266
0.013985702 -0.7756899 0.86041796 4278849266
0.013985706 -0.77555555 0.86042482 4278849266
0.013985711 -0.7753787 0.86045986 4278849266
0.013985709 -0.77531868 0.8604067 4278849266
0.013985708 -0.77524453 0.86036772 4278849266
0.011964496 -0.79126859 0.86126262 4278849266
0.011964462 -0.79145283 0.86103672 4278849266
0.011964457 -0.79142469 0.86095887 4278849266
0.011964464 -0.79131508 0.86094099 4278849266
0.011964464 -0.79125154 0.86088431 4278849266
0.011964474 -0.79111719 0.86088407 4278849266
0.01196448 -0.79100764 0.86085916 4278849266
0.011964485 -0.79090869 0.86083072 4278849266
0.011964494 -0.79077786 0.86082697 4278849266
0.011964505 -0.79064 0.86082315 4278849266
0.011964516 -0.79049855 0.86082292 4278849266
0.011964523 -0.79037839 0.86080861 4278849266
0.011964534 -0.79024047 0.86081189 4278849266
0.011964547 -0.79008847 0.86081517 4278849266
0.011964554 -0.78996831 0.8608008 4278849266
0.011964551 -0.78992951 0.86073357 4278849266
0.011964559 -0.78980935 0.86071926 4278849266
0.011964585 -0.78956169 0.86079657 4278849266
0.011964599 -0.78939551 0.86081398 4278849266
0.011964604 -0.78929657 0.86078554 4278849266
0.011964615 -0.78914803 0.8607924 4278849266
0.011964633 -0.78896064 0.86082387 4278849266
0.011964639 -0.78885812 0.86079895 4278849266
0.011964634 -0.78882641 0.86072463 4278849266
0.011964631 -0.78878057 0.86065739 4278849266
0.011964645 -0.788625 0.86067128 4278849266
0.011964649 -0.78853315 0.86063576 4278849266
0.011964681 -0.78824306 0.86074132 4278849266
0.01196467 -0.78825384 0.86063886 4278849266
0.011964669 -0.78820091 0.86057866 4278849266
0.011964696 -0.78794974 0.86065954 4278849266
0.01196475 -0.78749681 0.86087799 4278849266
0.011964749 -0.78744388 0.86081779 4278849266
0.011964744 -0.78740513 0.86074346 4278849266
0.011964786 -0.78704423 0.86089844 4278849266
0.011964788 -0.78697008 0.86085236 4278849266
0.011964791 -0.78688174 0.86082035 4278849266
0.011964796 -0.78678632 0.8607884 4278849266
0.011964781 -0.78682542 0.86066473 4278849266
0.011964783 -0.78675127 0.86061859 4278849266
0.011964786 -0.78666645 0.86058313 4278849266
0.011964803 -0.78648967 0.86061108 4278849266
0.011964818 -0.7863093 0.86064261 4278849266
0.011964824 -0.78620327 0.86061418 4278849266
0.011964839 -0.78603351 0.8606351 4278849266
0.011964851 -0.78589207 0.8606419 4278849266
0.011964862 -0.78574359 0.86064875 4278849266
0.011964879 -0.78556675 0.86067671 4278849266
0.011964909 -0.78528726 0.86077172 4278849266
0.011964925 -0.78511047 0.86079973 4278849266
0.011964924 -0.78505397 0.86074305 4278849266
0.011964913 -0.78506476 0.86064053 4278849266
0.0119649 -0.78509676 0.86052388 4278849266
0.011964908 -0.78498012 0.86050606 4278849266
0.011964942 -0.7846688 0.86062568 4278849266
0.011964952 -0.78454155 0.86061841 4278849266
0.011964964 -0.7843895 0.86062878 4278849266
0.011964976 -0.78424096 0.86063558 4278849266
0.011964991 -0.7840783 0.86065656 4278849266
0.011964995 -0.78397936 0.86062807 4278849266
0.011965009 -0.78382027 0.86064547 4278849266
0.011965027 -0.78362572 0.86068404 4278849266
0.011965033 -0.78352326 0.86065912 4278849266
0.011965038 -0.78342426 0.86063069 4278849266
0.011965046 -0.78330761 0.86061984 4278849266
0.011965053 -0.78319097 0.86060202 4278849266
0.011965062 -0.78306019 0.86059827 4278849266
0.011965074 -0.78292233 0.86060154 4278849266
0.011965089 -0.78275257 0.86062247 4278849266
0.011965105 -0.78257221 0.860654 4278849266
0.011965104 -0.7825157 0.86059731 4278849266
0.011965091 -0.78254771 0.86048073 4278849266
0.011965093 -0.78247356 0.86044168 4278849266
0.011965154 -0.78197461 0.86069185 4278849266
0.011965096 -0.78232878 0.86034596 4278849266
0.011965109 -0.78216964 0.86036342 4278849266
0.011965128 -0.78198218 0.86040193 4278849266
0.011965155 -0.78172392 0.8604899 4278849266
0.011965168 -0.78156835 0.86050379 4278849266
0.011965183 -0.78140217 0.8605212 4278849266
0.011965211 -0.78112978 0.86061621 4278849266
0.011965221 -0.78100604 0.86061245 4278849266
0.011965237 -0.78083271 0.86063689 4278849266
0.011965257 -0.78062403 0.86068958 4278849266
0.011965258 -0.78055692 0.86064351 4278849266
0.011965268 -0.78041905 0.86064678 4278849266
0.011965273 -0.78033072 0.86061484 4278849266
0.011965233 -0.78055036 0.86036062 4278849266
0.011965228 -0.78051865 0.86028636 4278849266
0.011965185 -0.78076661 0.86001807 4278849266
0.011965286 -0.77999157 0.86047286 4278849266
0.011965279 -0.77997398 0.8603915 4278849266
0.011965279 -0.77991396 0.86033839 4278849266
0.011965315 -0.77960265 0.8604722 4278849266
0.011965333 -0.77941877 0.86050725 4278849266
0.011965367 -0.77912152 0.86063403 4278849266
0.011965366 -0.77906507 0.86057734 4278849266
0.01196536 -0.77904046 0.86050308 4278849266
0.011965393 -0.77875036 0.86061573 4278849266
0.011965411 -0.77856642 0.86065781 4278849266
0.011965394 -0.77862322 0.86051649 4278849266
0.011965408 -0.7784676 0.86053747 4278849266
0.011965427 -0.77820957 0.86053348 4278849266
0.011965423 -0.77805781 0.86035997 4278849266
0.011965443 -0.77785265 0.86041623 4278849266
0.011965474 -0.7775802 0.86051828 4278849266
0.01196548 -0.77747774 0.86050045 4278849266
0.011965474 -0.77745664 0.86041552 4278849266
0.011965466 -0.77745682 0.86032361 4278849266
0.011965458 -0.77744281 0.86023164 4278849266
0.011965462 -0.77735448 0.86019969 4278849266
0.011965471 -0.77723074 0.86019593 4278849266
0.011965485 -0.7770716 0.86022043 4278849266
0.011965514 -0.77681339 0.86031544 4278849266
0.011965524 -0.77667898 0.8603223 4278849266
0.01196556 -0.77637118 0.86045259 4278849266
0.011965581 -0.77616602 0.8605088 4278849266
0.011965602 -0.77596438 0.86056858 4278849266
0.011965619 -0.77577698 0.86060715 4278849266
0.011965608 -0.77579129 0.86050111 4278849266
0.011965599 -0.77580208 0.86039859 4278849266
0.011965618 -0.77560043 0.86045128 4278849266
0.011965632 -0.7754519 0.86046517 4278849266
0.011965639 -0.77534235 0.86045438 4278849266
0.01196564 -0.77527523 0.86040831 4278849266
0.011965642 -0.77519751 0.86036575 4278849266
0.009848888 -0.79195118 0.86066192 4278849266
0.0098489225 -0.79176021 0.86069697 4278849266
0.0098489663 -0.79152328 0.8607567 4278849266
0.0098490017 -0.79132515 0.86079884 4278849266
0.0098490166 -0.791251 0.86075276 4278849266
0.0098490473 -0.79108483 0.86077017 4278849266
0.0098490855 -0.79087263 0.86081928 4278849266
0.0098490957 -0.79082322 0.86075556 4278849266
0.0098490985 -0.79081631 0.86066365 4278849266
0.0098491274 -0.79066068 0.86067754 4278849266
0.0098491656 -0.790452 0.86072314 4278849266
0.0098491758 -0.79040265 0.86065942 4278849266
0.0098491907 -0.7903285 0.86061335 4278849266
0.0098492065 -0.7902472 0.86057431 4278849266
0.0098492214 -0.79016948 0.86053175 4278849266
0.009849241 -0.7900635 0.86051041 4278849266
0.0098492913 -0.78978753 0.86060184 4278849266
0.0098493621 -0.7893877 0.86078155 4278849266
0.0098493816 -0.78928524 0.86075664 4278849266
0.009849417 -0.78909427 0.86079168 4278849266
0.0098494301 -0.78902721 0.86073852 4278849266
0.0098494384 -0.78898841 0.86067128 4278849266
0.0098494552 -0.78890008 0.86063224 4278849266
0.0098494599 -0.78888255 0.86055088 4278849266
0.0098495996 -0.7881006 0.86089963 4278849266
0.0098496201 -0.78799456 0.86087829 4278849266
0.0098495986 -0.78812569 0.86069107 4278849266
0.0098495763 -0.78826392 0.86049688 4278849266
0.0098496145 -0.78805524 0.86054957 4278849266
0.0098496927 -0.78761292 0.86075741 4278849266
0.0098497244 -0.78744322 0.86077839 4278849266
0.0098497402 -0.78736192 0.86073935 4278849266
0.0098497402 -0.78736919 0.86064035 4278849266
0.0098497383 -0.78739059 0.86052728 4278849266
0.0098497784 -0.78716773 0.860587 4278849266
0.0098498259 -0.78690243 0.86067498 4278849266
