# .PCD v0.7 - Point Cloud Data file format
VERSION 0.7
FIELDS x y z
SIZE 4 4 4
TYPE F F F
COUNT 1 1 1
WIDTH 1336
HEIGHT 1
VIEWPOINT 0 0 0 1 0 0 0
POINTS 1336
DATA ascii
-0.007962659 -0.78058881 0.83118337
-0.0079626702 -0.78052884 0.83112317
-0.0079626832 -0.78047591 0.83105588
-0.0079627009 -0.78051859 0.83090746
-0.0079627158 -0.78051525 0.83079785
-0.0079627289 -0.7804907 0.8307094
-0.0079627605 -0.78077412 0.83035636
-0.0079627698 -0.78067523 0.83032793
-0.0079627736 -0.78047359 0.83038765
-0.0079627857 -0.78041708 0.83032393
-0.0079627987 -0.78038895 0.830239
-0.0079628164 -0.78041399 0.83010119
-0.0079628378 -0.78053457 0.82988924
-0.0079628564 -0.78057373 0.82973731
-0.0079628695 -0.7805385 0.82965946
-0.0079628881 -0.78060246 0.82948989
-0.0079629058 -0.78063804 0.8293485
-0.0079629235 -0.7806772 0.82920361
-0.0079629403 -0.78070223 0.82906574
-0.0079629552 -0.7806918 0.82896322
-0.0079629701 -0.78068846 0.82885361
-0.0079629887 -0.78073823 0.82869816
-0.0079629999 -0.7806747 0.82864147
-0.0079630101 -0.78058994 0.82859886
-0.007963025 -0.78058302 0.82849282
-0.0079630408 -0.78059739 0.8283726
-0.0079630418 -0.78035325 0.82846761
-0.0079630697 -0.78057653 0.8281675
-0.0079630967 -0.78077859 0.82788152
-0.0079631144 -0.78081417 0.82774013
-0.0079631377 -0.78093833 0.82751763
-0.0079631442 -0.78078979 0.82753152
-0.0079631461 -0.78056693 0.8276124
-0.0079632578 -0.78089392 0.82665133
-0.0079632699 -0.78084457 0.82658052
-0.0079632793 -0.78072792 0.82656264
-0.0079632895 -0.78062898 0.82653421
-0.0079633081 -0.78069645 0.82636815
-0.0079633305 -0.78081352 0.82615268
-0.0079633445 -0.78078538 0.82606071
-0.0079633575 -0.78073955 0.82598639
-0.0079633798 -0.78085661 0.82577091
-0.0079633947 -0.78085327 0.8256613
-0.0079634115 -0.78086764 0.82553405
-0.0079634292 -0.78091741 0.8253786
-0.0079634544 -0.78106636 0.82513136
-0.0079634925 -0.78064579 0.82503515
-0.0079635093 -0.78068495 0.82489026
-0.0079635205 -0.78060371 0.82484418
-0.0079635419 -0.78071016 0.82463932
-0.0079635652 -0.78083426 0.82441676
-0.0079635885 -0.78070015 0.82430339
-0.0079635996 -0.78063303 0.82425022
-0.0079636425 -0.7810936 0.82373488
-0.0079636825 -0.78148335 0.82327598
-0.0079636956 -0.78144461 0.82319456
-0.0079637012 -0.78128189 0.82322258
-0.0079637086 -0.78113693 0.82323289
-0.0079637142 -0.78096718 0.82326794
-0.0079637766 -0.7814846 0.82258302
-0.0079637878 -0.78140688 0.82253337
-0.0079638045 -0.78141773 0.82240963
-0.0079638222 -0.78144622 0.82226825
-0.0079638315 -0.78133315 0.82224685
-0.0079638427 -0.781259 0.82219368
-0.0079638781 -0.78157437 0.82180178
-0.0079638902 -0.78151792 0.82173806
-0.0079638921 -0.781295 0.82181901
-0.0079639051 -0.78124923 0.82173759
-0.00796392 -0.78122818 0.82163852
-0.0079639386 -0.78128147 0.82147956
-0.0079639666 -0.78148353 0.82118648
-0.0079639805 -0.78144836 0.82110155
-0.007963988 -0.78129983 0.82110834
-0.0079639982 -0.78121859 0.8210693
-0.0079640113 -0.78116214 0.82099849
-0.0079640187 -0.78103131 0.82100177
-0.0079640457 -0.78121567 0.8207193
-0.0079640718 -0.7813682 0.82046145
-0.0079640737 -0.78113818 0.82054943
-0.0079640849 -0.78107464 0.82049274
-0.0079641026 -0.78109258 0.82035488
-0.0079641249 -0.78118843 0.82015353
-0.0079641417 -0.7811957 0.82002628
-0.0079641668 -0.78134817 0.81977552
-0.0079641789 -0.7812953 0.81970829
-0.0079641873 -0.78116447 0.81970447
-0.0079641985 -0.78109032 0.81965131
-0.0079642385 -0.78147298 0.81919241
-0.0079642525 -0.78143775 0.81910747
-0.0079642599 -0.78130341 0.81910723
-0.0079642702 -0.78120446 0.81907874
-0.0079642953 -0.7813499 0.81882799
-0.0079643261 -0.78158736 0.81849962
-0.0079643372 -0.78149194 0.81846058
-0.0079643438 -0.78135407 0.81847095
-0.0079643829 -0.78170484 0.81803668
-0.007964395 -0.7816413 0.81797296
-0.0079643903 -0.78132635 0.81813854
-0.0079644723 -0.78132039 0.81754458
-0.0079644891 -0.78132766 0.81741726
-0.0079646362 -0.78132957 0.81633544
-0.0079646455 -0.7812342 0.81630343
-0.0079647908 -0.78194731 0.81492937
-0.0079647982 -0.78179878 0.81494325
-0.0079648206 -0.78189111 0.81473839
-0.0079648308 -0.78180629 0.81469578
-0.0079648262 -0.78147715 0.81487548
-0.0079650227 -0.78195035 0.81322527
-0.0079650432 -0.78200722 0.8130486
-0.0079650637 -0.78207123 0.81287193
-0.0079651382 -0.78217477 0.81228167
-0.0079651549 -0.78218561 0.8121509
-0.0079651587 -0.78199464 0.8122071
-0.0079651596 -0.78176111 0.8122986
-0.0079651764 -0.78174716 0.81218547
-0.007965208 -0.7819705 0.81185704
-0.0079652201 -0.78191048 0.81178975
-0.0079652378 -0.78191781 0.8116625
-0.0079652658 -0.78209156 0.81137645
-0.0079654111 -0.78174675 0.81045657
-0.0079657631 -0.78265363 0.80748481
-0.0079666236 -0.78254819 0.80120194
-0.0079683615 -0.78431547 0.78767461
-0.007968463 -0.78487229 0.78668922
-0.0079701748 -0.78650832 0.77340555
-0.0079701906 -0.78623962 0.77340508
-0.0079702074 -0.78619736 0.77329892
-0.0079702241 -0.7861622 0.77319282
-0.0079702456 -0.78618729 0.77301961
-0.0079703284 -0.7864325 0.77230942
-0.0079703545 -0.78650713 0.7720868
-0.007970389 -0.78667748 0.7717548
-0.0079704104 -0.78667772 0.77159923
-0.0079705138 -0.78694093 0.77072996
-0.0079705333 -0.78693056 0.77058494
-0.0079705492 -0.7868883 0.77048588
-0.0079705697 -0.78688151 0.7703445
-0.0079706321 -0.78713709 0.76977217
-0.0079706367 -0.78695673 0.76981777
-0.0079726139 -0.78915524 0.75434315
-0.010105276 -0.7922231 0.86063284
-0.010105262 -0.79213125 0.86059737
-0.010105225 -0.79196858 0.8606112
-0.010105236 -0.79195815 0.86052281
-0.010105252 -0.79195827 0.8604238
-0.010105228 -0.79183459 0.86041296
-0.010105155 -0.79155511 0.86050791
-0.010105128 -0.79142427 0.86050415
-0.010105127 -0.79136783 0.86044043
-0.010105128 -0.79132903 0.8603732
-0.010105128 -0.79127967 0.86030942
-0.010105069 -0.79104269 0.86037624
-0.010105013 -0.79081982 0.8604359
-0.010104989 -0.79069257 0.86042154
-0.010104975 -0.79060423 0.86038959
-0.010104927 -0.79040265 0.86042809
-0.010104874 -0.79018688 0.86048079
-0.010104885 -0.79017645 0.86039233
-0.010104877 -0.7901023 0.86034626
-0.010104878 -0.79005992 0.86028254
-0.010104806 -0.78978401 0.86037397
-0.010104757 -0.78958243 0.86041957
-0.010104726 -0.78943747 0.86042285
-0.010104727 -0.78939164 0.86035562
-0.0101047 -0.7892608 0.86035186
-0.010104659 -0.78908044 0.86037624
-0.010104643 -0.7889815 0.86034781
-0.010104628 -0.78888965 0.86031938
-0.010104608 -0.78877652 0.86029798
-0.010104561 -0.78858203 0.86033648
-0.010104517 -0.78839809 0.86037153
-0.010104468 -0.78819299 0.86041361
-0.010104422 -0.78799844 0.86045212
-0.010104375 -0.78780395 0.86049068
-0.01010435 -0.78767663 0.86048341
-0.010104331 -0.7875706 0.86046201
-0.010104309 -0.78745395 0.86044413
-0.010104265 -0.78727007 0.86047912
-0.010104248 -0.78716761 0.8604542
-0.010104253 -0.7871359 0.86037987
-0.010104226 -0.78700507 0.86037612
-0.010104182 -0.78681767 0.86040759
-0.010104152 -0.78667623 0.86040735
-0.01010411 -0.78649586 0.86043888
-0.010104062 -0.78629428 0.86047739
-0.010104047 -0.78620237 0.86044896
-0.010104039 -0.78612822 0.86040288
-0.010103997 -0.78594786 0.86043435
-0.010103955 -0.7857675 0.86045879
-0.01010394 -0.78567564 0.86043036
-0.01010392 -0.78556252 0.86040896
-0.010103904 -0.78546715 0.86038399
-0.010103882 -0.7853505 0.86036611
-0.010103842 -0.78517717 0.8603906
-0.010103814 -0.78504282 0.86039031
-0.010103794 -0.78492975 0.86036891
-0.01010378 -0.78483784 0.86034048
-0.01010375 -0.78469646 0.86034024
-0.010103723 -0.78456563 0.86033648
-0.010103717 -0.78450209 0.86028683
-0.010103753 -0.78456599 0.86014557
-0.010103729 -0.78444225 0.86013472
-0.010103595 -0.78397512 0.86036724
-0.010103604 -0.78395408 0.86028236
-0.010103592 -0.78386927 0.86024684
-0.010103556 -0.78371018 0.86026424
-0.01010351 -0.78351563 0.86030281
-0.010103462 -0.78332108 0.8603484
-0.010103458 -0.78325754 0.86029172
-0.01010346 -0.78322232 0.86022097
-0.010103445 -0.78312689 0.86019605
-0.010103416 -0.78298551 0.86019576
-0.010103385 -0.78284407 0.86020261
-0.010103368 -0.78274512 0.86017412
-0.010103362 -0.78267801 0.86012805
-0.01010336 -0.78262508 0.86006784
-0.010103351 -0.78254735 0.86002529
-0.010103304 -0.78235638 0.86006737
-0.010103231 -0.7820769 0.86016238
-0.010103156 -0.78179389 0.86026788
-0.010103132 -0.78167367 0.86026067
-0.010103123 -0.78159952 0.86021453
-0.010103082 -0.78142273 0.86024249
-0.010103049 -0.78127068 0.86025286
-0.010103071 -0.7812956 0.8601433
-0.010103057 -0.78120726 0.8601113
-0.010103003 -0.78098798 0.8601675
-0.010103003 -0.78094214 0.8601073
-0.010103008 -0.78091043 0.86003304
-0.010102965 -0.78073007 0.86006451
-0.010102889 -0.78044349 0.86017358
-0.010102862 -0.78031266 0.86016983
-0.010102847 -0.78021729 0.86013788
-0.010102828 -0.78011125 0.86011642
-0.010102794 -0.7799592 0.86013389
-0.010102727 -0.77970093 0.8602218
-0.010102716 -0.77962679 0.86018276
-0.010102722 -0.77959508 0.86010849
-0.010102708 -0.77950674 0.86007649
-0.010102702 -0.7794432 0.8600269
-0.010102668 -0.77929115 0.8600443
-0.01010262 -0.7790966 0.8600899
-0.010102574 -0.77890915 0.86013556
-0.01010255 -0.77878541 0.86012471
-0.01010255 -0.77873957 0.86006451
-0.010102537 -0.77865118 0.86003256
-0.010102507 -0.77851331 0.86003584
-0.010102464 -0.77833295 0.8600744
-0.010102437 -0.77820563 0.86007416
-0.010102408 -0.77806777 0.86007744
-0.010102385 -0.77795112 0.86006665
-0.010102362 -0.77783448 0.86005586
-0.010102353 -0.77776027 0.86001682
-0.010102332 -0.7776472 0.86000246
-0.010102268 -0.77740657 0.86008692
-0.010102218 -0.77720499 0.86013955
-0.010102211 -0.77713788 0.86009353
-0.010102223 -0.77712744 0.86000508
-0.010102216 -0.77706033 0.85995901
-0.010102173 -0.77688348 0.85999405
-0.010102126 -0.77668899 0.86003965
-0.010102104 -0.77657938 0.86002886
-0.010102074 -0.77643794 0.86003572
-0.010102055 -0.77633548 0.86001784
-0.01010203 -0.77621174 0.86001408
-0.010102 -0.7760703 0.86002094
-0.010101981 -0.77596778 0.86000305
-0.010101941 -0.77579802 0.86003107
-0.010101894 -0.77560705 0.86008018
-0.010101862 -0.77546203 0.86009055
-0.010101842 -0.77535599 0.86007619
-0.010101842 -0.77530664 0.86001247
-0.010101839 -0.77525371 0.85995936
-0.010101815 -0.77513349 0.85995209
-0.010101786 -0.77499563 0.85995537
-0.010101754 -0.77485418 0.85996926
-0.010101696 -0.77463126 0.86004311
-0.010101659 -0.7744686 0.86006403
-0.010101658 -0.77442276 0.86000383
-0.010101655 -0.77436274 0.85995072
-0.010101624 -0.77422482 0.85996109
-0.010101591 -0.77407634 0.85997498
-0.010101574 -0.7739774 0.85995358
-0.010101562 -0.7738961 0.85991454
-0.010101561 -0.77384675 0.85985786
-0.010101544 -0.77374774 0.85983652
-0.010101513 -0.77360988 0.85984683
-0.01010148 -0.77346134 0.85986072
-0.010101404 -0.77318186 0.85997689
-0.010101375 -0.77304745 0.85998374
-0.010101391 -0.7730512 0.85988122
-0.010101403 -0.77304071 0.85979283
-0.010101396 -0.77297366 0.85974675
-0.010101386 -0.77289945 0.85970771
-0.010101381 -0.77283591 0.85965812
-0.010101369 -0.77275467 0.85962611
-0.010101352 -0.77265567 0.85960472
-0.010101334 -0.77255672 0.85958332
-0.010101333 -0.77250737 0.8595196
-0.010101344 -0.77249336 0.85943472
-0.010101356 -0.77248293 0.85934633
-0.010101357 -0.77244413 0.8592791
-0.010101338 -0.77233809 0.85926479
-0.010101308 -0.77220023 0.85926807
-0.010101276 -0.77205878 0.85928196
-0.010101251 -0.77193505 0.8592782
-0.010101269 -0.77194583 0.85917568
-0.010101289 -0.77196014 0.85906965
-0.010101283 -0.77189308 0.85901648
-0.010101288 -0.77186489 0.85894573
-0.010101291 -0.77182966 0.85887498
-0.01010127 -0.77172011 0.85886413
-0.010101248 -0.77160341 0.85885334
-0.010101243 -0.77154344 0.85880023
-0.010101249 -0.77151525 0.85872942
-0.010101257 -0.77149421 0.85864455
-0.010101257 -0.77144831 0.8585844
-0.010101238 -0.77134585 0.85856652
-0.010101198 -0.7711761 0.85859448
-0.010101194 -0.77111959 0.85854489
-0.010101213 -0.77113396 0.85843885
-0.01010121 -0.77107745 0.85838217
-0.010101212 -0.77103871 0.85831493
-0.010101206 -0.7709716 0.85826886
-0.0101012 -0.77090806 0.85821927
-0.01010121 -0.77089405 0.85813439
-0.010101208 -0.77084112 0.85808122
-0.01010118 -0.77071029 0.85808456
-0.010101158 -0.77059716 0.85807019
-0.010101169 -0.77058673 0.8579818
-0.010101177 -0.77056211 0.85790044
-0.010101165 -0.77048087 0.85786849
-0.010101177 -0.77047044 0.8577801
-0.010101188 -0.77046001 0.85769165
-0.010101167 -0.77034688 0.85767734
-0.010101139 -0.77021956 0.8576842
-0.010101146 -0.77019495 0.85760283
-0.010101173 -0.77023053 0.85747558
-0.01010119 -0.7702378 0.85737658
-0.010101203 -0.77023089 0.85728467
-0.010101215 -0.77022398 0.85719275
-0.010101212 -0.77016753 0.85713607
-0.010101207 -0.77010399 0.85708642
-0.010101221 -0.77010059 0.85699099
-0.010101237 -0.77010429 0.85688847
-0.010101244 -0.77007967 0.85681415
-0.010101258 -0.77007633 0.85671872
-0.010101276 -0.77008361 0.85661268
-0.010101294 -0.77009439 0.85650307
-0.010101328 -0.7701512 0.85636175
-0.010101359 -0.77020097 0.85622746
-0.010101368 -0.77017987 0.85614258
-0.010101387 -0.77019423 0.85603654
-0.010101419 -0.77024394 0.85589522
-0.010101425 -0.77021933 0.85582095
-0.010101436 -0.7702018 0.8557325
-0.010101439 -0.77016658 0.85566175
-0.010101435 -0.77011013 0.85561216
-0.010101443 -0.77008903 0.85552728
-0.010101483 -0.77016354 0.85536832
-0.010101545 -0.77030182 0.85515994
-0.010101563 -0.77031261 0.85505038
-0.010101576 -0.77030569 0.85495842
-0.010101669 -0.7705431 0.85467243
-0.010103385 -0.77544075 0.85016626
-0.010103506 -0.77576309 0.8498168
-0.010103592 -0.77597922 0.84955198
-0.010103732 -0.77636176 0.84915674
-0.010103826 -0.77659917 0.84887075
-0.010103867 -0.77667719 0.84870827
-0.010103865 -0.77662075 0.84865159
-0.010103842 -0.77650762 0.84864432
-0.010104189 -0.77751327 0.84775513
-0.010104511 -0.7777251 0.84594887
-0.010104572 -0.77781749 0.84567326
-0.0101046 -0.77785307 0.84553897
-0.01010465 -0.77795243 0.84535527
-0.010104709 -0.77808714 0.84515047
-0.010104744 -0.77814394 0.84500206
-0.010104717 -0.77801311 0.8449983
-0.010104701 -0.77791774 0.84497339
-0.010104719 -0.77792144 0.84486377
-0.010104771 -0.77803135 0.84467661
-0.010104815 -0.7781201 0.84450352
-0.010104819 -0.7780813 0.84442919
-0.010104811 -0.77800715 0.84438312
-0.010104858 -0.77810293 0.84420294
-0.01010488 -0.77812082 0.84408629
-0.01010487 -0.77804309 0.84404373
-0.010105106 -0.7785114 0.84314656
-0.010105175 -0.77867091 0.84291703
-0.010105194 -0.77867818 0.8428039
-0.010105363 -0.77889526 0.84199464
-0.010105657 -0.77943832 0.84081829
-0.010105688 -0.77948093 0.84067696
-0.010105666 -0.77936429 0.84066612
-0.010105653 -0.77927595 0.84063417
-0.010105663 -0.77925849 0.84053868
-0.01010581 -0.77945417 0.83984959
-0.010105863 -0.77956408 0.83965534
-0.010105878 -0.77956074 0.83955276
-0.010105886 -0.77953261 0.83946788
-0.010105921 -0.77958941 0.83931243
-0.010105893 -0.77945507 0.8393122
-0.010105812 -0.77916497 0.83944601
-0.010105821 -0.77914387 0.83935404
-0.010105992 -0.77960438 0.83887404
-0.010106047 -0.77971786 0.83866918
-0.010106084 -0.77978176 0.83851373
-0.010106107 -0.77979964 0.83838999
-0.010106123 -0.77979988 0.83828396
-0.010106153 -0.77983898 0.83814615
-0.010106184 -0.77987814 0.83800125
-0.010106158 -0.7797544 0.8379975
-0.010106152 -0.77968735 0.83794433
-0.010106172 -0.77970165 0.8378312
-0.010106303 -0.78004175 0.83744293
-0.010106303 -0.77998883 0.83737564
-0.010106288 -0.77989346 0.83734363
-0.010106265 -0.77977681 0.83733284
-0.01010625 -0.7796849 0.83730441
-0.010106259 -0.77966034 0.83721596
-0.010106293 -0.77971011 0.83706045
-0.010106319 -0.77973861 0.83693326
-0.01010635 -0.7797848 0.83678836
-0.010106422 -0.77994788 0.83654118
-0.010106442 -0.77995872 0.83642453
-0.010106443 -0.77990931 0.83635372
-0.010106492 -0.78000516 0.8361665
-0.010106524 -0.78005135 0.83602166
-0.01010652 -0.77998781 0.83596498
-0.010106525 -0.77995616 0.83588356
-0.01010654 -0.77994925 0.83577752
-0.010106572 -0.77999192 0.83562911
-0.010106602 -0.78003109 0.8354913
-0.010106594 -0.77996045 0.83544165
-0.010106604 -0.77993941 0.83534968
-0.010106645 -0.78000689 0.83517659
-0.010106641 -0.77994686 0.83512342
-0.010106627 -0.77985501 0.8350879
-0.010106688 -0.77998978 0.83486897
-0.010106816 -0.7803157 0.83448058
-0.01010682 -0.78027695 0.83440632
-0.010106836 -0.78027362 0.8342967
-0.010106839 -0.78023487 0.83422238
-0.010106825 -0.78014296 0.83418685
-0.01010679 -0.77998739 0.83420777
-0.010106824 -0.78003716 0.83405232
-0.010106926 -0.78028876 0.83373106
-0.01010693 -0.78025001 0.83365673
-0.01010693 -0.7802006 0.83358592
-0.01010694 -0.78017956 0.83349395
-0.010106954 -0.78016913 0.83339143
-0.010106944 -0.78009146 0.83334887
-0.010106962 -0.78009516 0.83323216
-0.010106993 -0.78013432 0.83308727
-0.010106975 -0.78003538 0.83306593
-0.010106987 -0.78001785 0.83296335
-0.010107047 -0.78014201 0.83274788
-0.010107056 -0.78012097 0.83265591
-0.010107048 -0.78004676 0.83260983
-0.010107048 -0.77999389 0.83254254
-0.010107093 -0.78007907 0.8323589
-0.010107228 -0.78042626 0.83195645
-0.010107257 -0.78046185 0.83181506
-0.010107263 -0.78042662 0.83173013
-0.010107271 -0.78040206 0.83164173
-0.010107251 -0.78029245 0.83162385
-0.010107227 -0.78016877 0.831613
-0.010107263 -0.78022557 0.83145756
-0.010107289 -0.78025413 0.83132327
-0.010107287 -0.78019768 0.83125955
-0.01010728 -0.78012353 0.83120638
-0.010107266 -0.78003162 0.83117789
-0.010107378 -0.78030807 0.83082485
-0.010107465 -0.78051716 0.83053887
-0.010107496 -0.78055626 0.83039397
-0.010107466 -0.7804184 0.83039725
-0.010107433 -0.78026986 0.83041114
-0.010107453 -0.78027719 0.83029091
-0.010107626 -0.7807377 0.8297897
-0.010107676 -0.78083348 0.82959539
-0.010107627 -0.78063893 0.82964808
-0.010107614 -0.78054708 0.82961255
-0.010107617 -0.78050476 0.82953471
-0.010107637 -0.78051561 0.82941806
-0.010107672 -0.78056538 0.82926261
-0.010107651 -0.78045225 0.82924116
-0.010107597 -0.78024358 0.82930797
-0.010107677 -0.78042787 0.82903963
-0.010107735 -0.78054494 0.82882416
-0.010107757 -0.7805593 0.828704
-0.010107772 -0.7805559 0.82859439
-0.010107844 -0.78071547 0.82834363
-0.010107713 -0.78007203 0.82832831
-0.010107782 -0.78022802 0.82808822
-0.010107817 -0.78028136 0.8279292
-0.010107963 -0.78066039 0.82749498
-0.010108068 -0.78091556 0.8271631
-0.010107996 -0.7806502 0.82727224
-0.010107968 -0.78051937 0.82727551
-0.010108067 -0.78065455 0.82681614
-0.010108082 -0.78064764 0.8267101
-0.010108104 -0.780662 0.82658285
-0.010108169 -0.78080386 0.82634974
-0.010108252 -0.78099525 0.8260743
-0.010108277 -0.78101671 0.82594001
-0.010108315 -0.78107709 0.82577395
-0.010108325 -0.78105253 0.82567841
-0.010108191 -0.78060657 0.82594633
-0.010108199 -0.78058201 0.82585788
-0.010108284 -0.78077698 0.82557189
-0.010108261 -0.78066033 0.82556105
-0.010108479 -0.78114247 0.82479823
-0.010108425 -0.78093374 0.82486504
-0.010108426 -0.78088439 0.82479423
-0.010108446 -0.78089166 0.82467407
-0.01010824 -0.78023684 0.82512188
-0.010108244 -0.78019452 0.82504404
-0.010108489 -0.78086042 0.82435226
-0.010108526 -0.78091729 0.82418972
-0.010108531 -0.78087854 0.82410836
-0.010108527 -0.78081852 0.8240481
-0.010108436 -0.78050005 0.82421017
-0.010108648 -0.78106683 0.823596
-0.010108629 -0.7809608 0.8235746
-0.010108648 -0.78096455 0.82345796
-0.010108649 -0.78091514 0.82338715
-0.010108658 -0.78089058 0.82329166
-0.010108775 -0.78118116 0.82292449
-0.01010886 -0.78127033 0.82249683
-0.010108863 -0.78122801 0.82241899
-0.010108868 -0.78118575 0.82233405
-0.01010891 -0.78125674 0.82215738
-0.010108949 -0.78132069 0.82198781
-0.010108883 -0.78107655 0.82208282
-0.010108813 -0.7808218 0.82219553
-0.010108897 -0.78096032 0.82183868
-0.010108924 -0.78098887 0.82169729
-0.010109055 -0.78126198 0.82122046
-0.010109071 -0.78125507 0.82110733
-0.010109105 -0.78130484 0.82095188
-0.010109085 -0.78119177 0.82093042
-0.010109028 -0.78097594 0.82100433
-0.010109163 -0.78110451 0.82030451
-0.010109166 -0.78106219 0.82022667
-0.010109213 -0.78114384 0.8200323
-0.01010923 -0.78114402 0.81991917
-0.010109245 -0.78113365 0.81980956
-0.01010924 -0.7810666 0.81974936
-0.010109182 -0.78084725 0.81982672
-0.010109454 -0.78158045 0.81905377
-0.010109331 -0.78117341 0.81930405
-0.01010936 -0.78120196 0.81915563
-0.010109399 -0.78110367 0.81877363
-0.010109474 -0.78126675 0.81850517
-0.010109496 -0.78128111 0.81837797
-0.010109526 -0.78131324 0.81822598
-0.010109548 -0.78132403 0.81809515
-0.010109558 -0.78129947 0.81799966
-0.010109556 -0.78124303 0.81793594
-0.01010981 -0.7819196 0.81720525
-0.010109651 -0.78140986 0.8175438
-0.010109689 -0.78146672 0.81737417
-0.010109715 -0.78148818 0.81723279
-0.010109746 -0.78152382 0.81708437
-0.010109757 -0.78144991 0.81691098
-0.01010988 -0.78143013 0.81608361
-0.010109844 -0.78127098 0.81610811
-0.010109846 -0.78122514 0.81603378
-0.010109975 -0.78154057 0.81562066
-0.010110003 -0.78156912 0.81547225
-0.010110037 -0.78150952 0.8151716
-0.010110058 -0.78151685 0.81504434
-0.010110077 -0.78151351 0.8149206
-0.010110082 -0.78147829 0.81483567
-0.010110426 -0.78208536 0.81342608
-0.010110357 -0.78183419 0.81353521
-0.010110405 -0.78191584 0.81333387
-0.010110489 -0.78210372 0.81304073
-0.01011046 -0.78196585 0.81304401
-0.010110398 -0.78152072 0.81284523
-0.010110405 -0.78148907 0.81274974
-0.010110439 -0.78153175 0.81259423
-0.010110548 -0.78140956 0.81172073
-0.01011114 -0.78184313 0.80845821
-0.010111226 -0.78203106 0.80815804
-0.010111264 -0.78208441 0.8079778
-0.010111257 -0.78201026 0.80792463
-0.010111255 -0.78195029 0.80785733
-0.010111226 -0.78181237 0.80786067
-0.010112112 -0.78260207 0.80317038
-0.010116599 -0.78578907 0.77833885
-0.010116566 -0.78564054 0.77835274
-0.010117583 -0.78650582 0.77291662
-0.010117853 -0.78577173 0.77016819
-0.010117915 -0.78587472 0.76991028
-0.010120323 -0.7888298 0.7582624
-0.0101229 -0.79116607 0.74469006
-0.012010846 -0.79227912 0.8606109
-0.012010845 -0.79219788 0.86057186
-0.012010821 -0.7919715 0.86062801
-0.012010816 -0.79186904 0.86060309
-0.01201083 -0.79186213 0.86051118
-0.012010836 -0.79181981 0.86044037
-0.012010732 -0.79112971 0.86081743
-0.012010762 -0.79122901 0.86065501
-0.012010793 -0.79132479 0.86048901
-0.012010804 -0.79131079 0.86040413
-0.012010804 -0.79123306 0.86036152
-0.012010772 -0.79096776 0.86044949
-0.012010755 -0.79078382 0.86047745
-0.012010749 -0.79067075 0.86045599
-0.012010743 -0.79055762 0.86044168
-0.012010723 -0.79035956 0.86047667
-0.01201071 -0.79020399 0.86049056
-0.012010709 -0.79012275 0.86045152
-0.012010711 -0.79005212 0.86040187
-0.012010718 -0.79000628 0.86033463
-0.012010729 -0.78999227 0.86024976
-0.012010721 -0.78986502 0.86024249
-0.012010708 -0.78971654 0.86024928
-0.012010664 -0.78937334 0.86038655
-0.012010643 -0.78917879 0.86042511
-0.012010632 -0.78903031 0.86043191
-0.012010614 -0.78885347 0.86045986
-0.012010621 -0.78880763 0.86039263
-0.012010617 -0.78870511 0.86036772
-0.012010611 -0.78858852 0.86034977
-0.012010595 -0.78842229 0.86037427
-0.012010571 -0.78819591 0.86043042
-0.012010562 -0.78806865 0.86042309
-0.012010559 -0.78796971 0.86039466
-0.01201054 -0.78778577 0.8604297
-0.012010516 -0.78756648 0.86048585
-0.012010521 -0.78751707 0.86042213
-0.012010515 -0.787404 0.86040777
-0.012010507 -0.78727323 0.86039698
-0.012010491 -0.78710347 0.86041784
-0.01201048 -0.78696203 0.8604247
-0.012010478 -0.78687012 0.86038917
-0.012010486 -0.78683496 0.86031842
-0.012010493 -0.78679967 0.86024761
-0.012010494 -0.78672552 0.86020154
-0.012010478 -0.78655577 0.86022246
-0.012010434 -0.78621614 0.86036325
-0.012010399 -0.78593314 0.86046177
-0.012010378 -0.78573149 0.86050737
-0.012010371 -0.78561485 0.86048949
-0.012010396 -0.78567523 0.86035168
-0.012010417 -0.78572494 0.86022455
-0.012010414 -0.78562599 0.86019605
-0.012010386 -0.78538543 0.86026633
-0.012010382 -0.78528649 0.8602379
-0.012010391 -0.78525484 0.86016357
-0.012010378 -0.78509921 0.86017746
-0.012010339 -0.7847985 0.86029357
-0.012010301 -0.7844978 0.86040264
-0.012010303 -0.78443068 0.86035657
-0.012010306 -0.78437066 0.86030346
-0.012010284 -0.78416198 0.86034906
-0.012010246 -0.78386128 0.86046517
-0.012010243 -0.78376585 0.86043316
-0.012010247 -0.7837165 0.86037654
-0.012010267 -0.78375208 0.86025637
-0.012010278 -0.78373808 0.8601715
-0.01201027 -0.78361076 0.86016423
-0.01201026 -0.78347647 0.86015689
-0.012010265 -0.78341997 0.86010021
-0.01201026 -0.78331041 0.86008239
-0.012010248 -0.78317255 0.86008567
-0.012010235 -0.7830205 0.86009598
-0.012010218 -0.78284013 0.86012751
-0.012010191 -0.78260666 0.86019778
-0.012010181 -0.78246874 0.86019403
-0.012010175 -0.78235567 0.86017966
-0.012010175 -0.78227443 0.86014062
-0.012010179 -0.78221792 0.86008394
-0.012010169 -0.78208715 0.86008018
-0.012010154 -0.78192443 0.8601011
-0.01201014 -0.78176534 0.86011851
-0.012010121 -0.78157789 0.86015707
-0.012010102 -0.78139043 0.86018854
-0.01201007 -0.78113216 0.86027646
-0.01201006 -0.7809943 0.8602798
-0.012010079 -0.78101927 0.86016315
-0.012010074 -0.78092027 0.86014175
-0.012010064 -0.78078592 0.86014152
-0.01201007 -0.78074008 0.86007428
-0.012010038 -0.78047478 0.86016923
-0.012010002 -0.78019172 0.86027479
-0.012009999 -0.78009987 0.86024636
-0.012010009 -0.78007525 0.860165
-0.012009997 -0.77993381 0.86017185
-0.012009976 -0.77973574 0.86022097
-0.012009972 -0.77963328 0.86019605
-0.012009978 -0.77959448 0.86012882
-0.012009979 -0.77952385 0.86008626
-0.012009963 -0.77935761 0.8601107
-0.012009958 -0.77924806 0.86009282
-0.012009953 -0.77914912 0.86007142
-0.012009938 -0.77898288 0.86009592
-0.012009924 -0.77883083 0.86011332
-0.012009893 -0.77857614 0.86020476
-0.012009874 -0.77839571 0.86024338
-0.012009908 -0.77850568 0.86006325
-0.012009921 -0.7785129 0.85996425
-0.01200991 -0.77837145 0.85997105
-0.012009877 -0.77810967 0.86006957
-0.012009853 -0.77789742 0.86012578
-0.012009853 -0.77781969 0.86009032
-0.012009837 -0.77765703 0.86011827
-0.012009837 -0.77757931 0.86007571
-0.012009844 -0.77754056 0.86000848
-0.012009834 -0.77741325 0.8600083
-0.012009814 -0.77722228 0.86005038
-0.0120098 -0.77707022 0.86006778
-0.012009804 -0.7770102 0.86001462
-0.012009794 -0.77687937 0.8600179
-0.012009771 -0.77667421 0.86007416
-0.01200976 -0.77654344 0.86007744
-0.012009759 -0.77645504 0.86004549
-0.012009746 -0.77631009 0.8600558
-0.012009738 -0.77618992 0.86004853
-0.012009739 -0.77611929 0.86000597
-0.012009728 -0.77597785 0.86001277
-0.012009709 -0.77580452 0.86005139
-0.012009697 -0.77565598 0.86006528
-0.012009689 -0.77553582 0.86005801
-0.012009678 -0.77540499 0.86006129
-0.012009679 -0.77533084 0.86001515
-0.012009683 -0.77527791 0.85996205
-0.01200967 -0.7751258 0.85997945
-0.01200965 -0.77494544 0.86001801
-0.012009645 -0.77483231 0.86000371
-0.012009626 -0.77465904 0.86004227
-0.01200961 -0.7744928 0.86006671
-0.012009606 -0.77439028 0.86004889
-0.012009609 -0.77434093 0.85999221
-0.012009612 -0.77427733 0.85994262
-0.012009604 -0.77415359 0.85993886
-0.01200959 -0.7740016 0.85995626
-0.012009577 -0.77385306 0.85997015
-0.012009564 -0.77370805 0.85998756
-0.012009549 -0.7735489 0.86001205
-0.012009533 -0.77338976 0.86003649
-0.01200953 -0.77329791 0.86000806
-0.01200953 -0.77321666 0.85996902
-0.012009522 -0.77309293 0.85996526
-0.012009519 -0.77300811 0.85993683
-0.012009528 -0.77297997 0.85985899
-0.012009536 -0.77295178 0.85978824
-0.012009534 -0.77286345 0.85975623
-0.012009528 -0.7727468 0.85974544
-0.012009529 -0.77268678 0.85969937
-0.012009539 -0.77265865 0.85962152
-0.012009545 -0.77261984 0.85955429
-0.012009541 -0.7725209 0.85953289
-0.012009534 -0.77241135 0.8595221
-0.01200953 -0.77230889 0.85949719
-0.012009535 -0.77225947 0.85944051
-0.01200955 -0.77227026 0.85933799
-0.01200955 -0.77219254 0.85929543
-0.012009542 -0.77207589 0.85929167
-0.01200955 -0.77204418 0.85921741
-0.012009554 -0.77199125 0.8591643
-0.012009551 -0.77189934 0.85913581
-0.012009558 -0.7718606 0.85906857
-0.01200956 -0.77179706 0.85901898
-0.012009564 -0.77174056 0.8589623
-0.012009569 -0.7716912 0.85890561
-0.012009561 -0.77157456 0.85889482
-0.012009567 -0.77152866 0.85883468
-0.012009579 -0.77151823 0.85874623
-0.012009583 -0.77147239 0.85868603
-0.012009584 -0.7714017 0.85864353
-0.01200958 -0.77130276 0.85862213
-0.012009571 -0.77117902 0.85861838
-0.012009569 -0.77109069 0.85858637
-0.01200958 -0.77107316 0.85850501
-0.012009589 -0.77104855 0.85842365
-0.01200959 -0.77097791 0.85838109
-0.012009589 -0.77089667 0.85834914
-0.012009592 -0.77083665 0.85829604
-0.012009609 -0.77085453 0.85818648
-0.012009628 -0.77088302 0.85806626
-0.012009622 -0.77077347 0.85805547
-0.012009609 -0.77062845 0.85806584
-0.012009599 -0.77050471 0.85806918
-0.012009596 -0.77040577 0.85804778
-0.012009596 -0.77032804 0.85800517
-0.012009605 -0.770307 0.85792738
-0.012009623 -0.7703284 0.85781431
-0.012009636 -0.77032149 0.85772234
-0.012009634 -0.77023315 0.85769039
-0.01200963 -0.77014124 0.857669
-0.012009643 -0.77013791 0.85757351
-0.012009662 -0.7701593 0.85745335
-0.012009673 -0.77014536 0.85736847
-0.012009677 -0.77009594 0.85731184
-0.012009684 -0.7700572 0.85724455
-0.012009692 -0.77002901 0.85716677
-0.012009713 -0.77006108 0.85704309
-0.012009722 -0.77003998 0.85696524
-0.012009717 -0.76993746 0.85694736
-0.012009718 -0.7698704 0.85690129
-0.012009726 -0.76983517 0.85683054
-0.012009749 -0.76988137 0.85669273
-0.012009784 -0.76999485 0.85650909
-0.012009809 -0.77005875 0.85636073
-0.012009826 -0.77006954 0.85625112
-0.01200984 -0.77007675 0.85615212
-0.012009848 -0.77003801 0.85607779
-0.01200985 -0.76997799 0.85603178
-0.012009855 -0.76993567 0.85596806
-0.012009873 -0.76995003 0.85585493
-0.012009906 -0.77005285 0.8556748
-0.012009925 -0.7700814 0.85555464
-0.01200992 -0.76997888 0.85553676
-0.012009928 -0.76994717 0.85546249
-0.012009971 -0.77010316 0.85524356
-0.012009986 -0.77010685 0.85514104
-0.012009999 -0.77009642 0.85504556
-0.012010034 -0.77021694 0.85485482
-0.01201014 -0.77070928 0.85436428
-0.012010238 -0.77115911 0.85390902
-0.012010871 -0.77428246 0.85107905
-0.012011196 -0.77582657 0.84958977
-0.012011306 -0.77635783 0.84908158
-0.012011341 -0.77646422 0.84889793
-0.01201137 -0.77654582 0.84873188
-0.012011413 -0.77670175 0.84851301
-0.012011434 -0.77673382 0.84838223
-0.012011783 -0.77761066 0.84637207
-0.012011803 -0.77739894 0.84612417
-0.012011817 -0.77739209 0.84602517
-0.012011887 -0.77769321 0.84568983
-0.012011913 -0.77775359 0.8455379
-0.012011942 -0.7778281 0.84537184
-0.012011977 -0.77794158 0.84518117
-0.012011991 -0.77793825 0.84507859
-0.012012025 -0.77804816 0.84489143
-0.012012045 -0.77807313 0.84476775
-0.01201204 -0.7779671 0.84474629
-0.012012043 -0.77790356 0.8446967
-0.01201207 -0.77797103 0.84453773
-0.01201211 -0.77810574 0.84432584
-0.012012125 -0.77810591 0.8442198
-0.012012143 -0.77812028 0.84410667
-0.012012162 -0.77814877 0.84397942
-0.012012213 -0.77834016 0.8437252
-0.012012523 -0.7789551 0.8418631
-0.012012515 -0.77883846 0.84185225
-0.012012556 -0.77897668 0.84163684
-0.012012572 -0.77898753 0.84152728
-0.012012569 -0.77888858 0.84149879
-0.012012719 -0.77920479 0.84060484
-0.012012737 -0.77921563 0.8404882
-0.012012828 -0.77937925 0.83992988
-0.012012859 -0.77946794 0.83975679
-0.012012881 -0.77950001 0.83961898
-0.012012872 -0.77937627 0.83961523
-0.012012907 -0.77947915 0.83942091
-0.012012939 -0.77957135 0.83924431
-0.012012948 -0.7795397 0.83916295
-0.012012963 -0.77953988 0.83905691
-0.012012949 -0.77938432 0.83907783
-0.012012938 -0.77924287 0.83908463
-0.01201296 -0.77928197 0.83894682
-0.012012986 -0.77933532 0.83879489
-0.012013007 -0.77936733 0.83866417
-0.012013053 -0.77953041 0.83842403
-0.012013117 -0.77978551 0.83810627
-0.012013143 -0.77984238 0.83795083
-0.012013181 -0.77996647 0.83774245
-0.012013135 -0.7796374 0.83790094
-0.012013174 -0.77976149 0.83769256
-0.012013208 -0.77986085 0.83750182
-0.012013217 -0.77983272 0.83741695
-0.012013225 -0.7797904 0.83734614
-0.012013234 -0.77975875 0.83726478
-0.012013248 -0.77974832 0.8371622
-0.012013258 -0.7797237 0.8370738
-0.012013272 -0.77971679 0.8369748
-0.012013297 -0.77976656 0.83682638
-0.012013332 -0.77986944 0.83663207
-0.012013349 -0.77987671 0.836519
-0.012013337 -0.77972823 0.8365258
-0.012013345 -0.77969301 0.83644795
-0.012013379 -0.77979231 0.83625722
-0.012013401 -0.77982086 0.83612287
-0.012013406 -0.77977151 0.83605915
-0.012013405 -0.77968317 0.83602011
-0.012013434 -0.77975065 0.83585405
-0.012013489 -0.77996325 0.83557159
-0.012013501 -0.77994221 0.83547962
-0.012013499 -0.77985036 0.83544409
-0.012013506 -0.77980453 0.83536977
-0.012013516 -0.77977639 0.83528489
-0.01201354 -0.77982259 0.83513999
-0.012013567 -0.77988297 0.83498102
-0.012013581 -0.77987254 0.8348785
-0.012013587 -0.77982318 0.83480769
-0.012013612 -0.77987295 0.83465928
-0.012013694 -0.78021657 0.83426034
-0.012013701 -0.78017074 0.83418602
-0.012013694 -0.78005409 0.83417523
-0.01201369 -0.77995163 0.83415031
-0.012013718 -0.7800191 0.83398426
-0.012013759 -0.78014678 0.83376527
-0.012013794 -0.78024608 0.83357453
-0.012013759 -0.7799843 0.83368009
-0.012013772 -0.77996677 0.83358461
-0.012013788 -0.77997762 0.83346796
-0.012013815 -0.78003091 0.83330899
-0.012013832 -0.78003818 0.83319587
-0.012013852 -0.78005964 0.83306861
-0.012013867 -0.7800563 0.832959
-0.012013892 -0.78010249 0.83280706
-0.012013919 -0.78016287 0.83264804
-0.012013926 -0.78011703 0.83257371
-0.012013946 -0.78013849 0.83244652
-0.012013966 -0.78015995 0.83231217
-0.012013975 -0.78012472 0.83223432
-0.012013987 -0.7801072 0.83213884
-0.012013987 -0.78002244 0.83209628
-0.012013993 -0.77997661 0.83202899
-0.012014025 -0.78005469 0.83184528
-0.012014061 -0.78016466 0.831644
-0.012014066 -0.78010821 0.83158022
-0.01201406 -0.77999866 0.83156234
-0.012014072 -0.77997762 0.83147043
-0.0120141 -0.780038 0.83130431
-0.012014133 -0.78012317 0.83112067
-0.012014144 -0.78010213 0.8310287
-0.01201415 -0.7800492 0.83096141
-0.012014179 -0.78012377 0.83078831
-0.012014203 -0.78015584 0.83064342
-0.012014246 -0.78029412 0.83041382
-0.012014255 -0.78026247 0.83033246
-0.012014226 -0.78003252 0.83041334
-0.012014272 -0.78018498 0.83016968
-0.012014341 -0.78045779 0.82982725
-0.012014327 -0.78030223 0.82984817
-0.012014319 -0.78018558 0.82983732
-0.012014356 -0.78029549 0.82962894
-0.012014386 -0.78036302 0.82945579
-0.012014407 -0.7803809 0.82932502
-0.01201446 -0.7805723 0.82904959
-0.012014423 -0.78022218 0.82913029
-0.012014437 -0.78021884 0.82902068
-0.012014469 -0.78029692 0.82883698
-0.012014491 -0.78032547 0.82870269
-0.012014491 -0.78024775 0.82865304
-0.012014515 -0.78028333 0.82851171
-0.012014576 -0.7805208 0.82819742
-0.012014561 -0.78036165 0.82822192
-0.0120146 -0.78047872 0.82800645
-0.012014641 -0.78060991 0.82778394
-0.012014652 -0.78057474 0.82769907
-0.012014644 -0.78045803 0.82768822
-0.012014651 -0.78040868 0.82761741
-0.012014749 -0.78083026 0.82714087
-0.012014713 -0.7805649 0.8272571
-0.012014735 -0.7805934 0.82712275
-0.012014743 -0.78055465 0.82704139
-0.012014767 -0.78059381 0.82688946
-0.012014801 -0.78068256 0.82670218
-0.012014765 -0.78033596 0.82677227
-0.012014912 -0.78092057 0.82604146
-0.012014849 -0.7805171 0.8262741
-0.012014846 -0.78041822 0.82624567
-0.012014845 -0.78033692 0.82620662
-0.012014885 -0.78045756 0.82598764
-0.012014928 -0.78059232 0.82575452
-0.012014942 -0.78058189 0.82565194
-0.012014952 -0.78054667 0.82556707
-0.012014944 -0.78042293 0.82555622
-0.012015079 -0.78086263 0.82483578
-0.012015062 -0.78069997 0.82486373
-0.012015072 -0.78066474 0.82477885
-0.012015079 -0.78061891 0.82470453
-0.012015081 -0.78054118 0.82465488
-0.012015098 -0.78054494 0.82453823
-0.012015095 -0.78044957 0.82450622
-0.012015114 -0.78046036 0.82438248
-0.012015144 -0.78053492 0.8242023
-0.012015161 -0.78053516 0.82408214
-0.012015169 -0.7804929 0.82400423
-0.012015203 -0.78058511 0.8238135
-0.012015187 -0.78042245 0.82384151
-0.012015193 -0.78036249 0.82377422
-0.012015341 -0.78102839 0.82307535
-0.012015329 -0.78089046 0.82308573
-0.012015313 -0.78072071 0.82311368
-0.012015333 -0.78074217 0.82297939
-0.012015386 -0.78093004 0.82270038
-0.012015438 -0.78110731 0.82243204
-0.012015446 -0.78106856 0.82235062
-0.012015536 -0.7811898 0.82177812
-0.012015543 -0.78113335 0.82170731
-0.012015541 -0.78104144 0.82167178
-0.012015545 -0.78098148 0.82161158
-0.01201556 -0.78097105 0.82150191
-0.01201557 -0.7809394 0.82141352
-0.012015564 -0.78082985 0.82139564
-0.012015564 -0.78074503 0.82135302
-0.012015578 -0.78073108 0.82124698
-0.012015615 -0.78083044 0.82104206
-0.012015655 -0.78094751 0.82081956
-0.012015664 -0.78091234 0.82073462
-0.01201569 -0.78095853 0.82057559
-0.012015704 -0.78094816 0.82047307
-0.012015693 -0.78080672 0.82047987
-0.012015704 -0.7807821 0.82038438
-0.012015716 -0.78075755 0.82028884
-0.012015786 -0.78102332 0.81993228
-0.012015808 -0.78105187 0.8197909
-0.012015833 -0.78109103 0.81963891
-0.012015847 -0.78106999 0.81953281
-0.01201588 -0.78115875 0.8193385
-0.012015889 -0.78112 0.81925714
-0.012015882 -0.78099984 0.81924278
-0.012015906 -0.78103542 0.81909436
-0.012015953 -0.78118438 0.81884003
-0.012016082 -0.78157455 0.81813365
-0.012016 -0.78083527 0.81832677
-0.012016193 -0.7814523 0.8172884
-0.012016184 -0.78132504 0.81728822
-0.012016217 -0.7814067 0.81709391
-0.012016244 -0.78145999 0.81692779
-0.01201625 -0.78140002 0.81686056
-0.012016225 -0.78119129 0.81692731
-0.012016454 -0.78156149 0.8155067
-0.012016441 -0.78141302 0.81552058
-0.012016436 -0.78122574 0.81545311
-0.012016454 -0.78122598 0.81533289
-0.012016479 -0.78126514 0.81517386
-0.012016515 -0.78135741 0.81496894
-0.012016581 -0.78160197 0.81462646
-0.012016607 -0.78163761 0.81447095
-0.012016697 -0.78165638 0.81384516
-0.012016715 -0.78166366 0.8137179
-0.012016727 -0.78163201 0.81362242
-0.012016701 -0.78141975 0.81369275
-0.012016688 -0.7812748 0.81371015
-0.012016767 -0.78157604 0.81331116
-0.012016789 -0.78160101 0.81316626
-0.012016958 -0.78182918 0.81209183
-0.012016854 -0.78124154 0.81251508
-0.012017014 -0.7817663 0.81166041
-0.012017046 -0.78174907 0.81143057
-0.012017088 -0.78186965 0.81119746
-0.012022655 -0.78599066 0.7740922
-0.01202291 -0.78618813 0.7724061
-0.012023368 -0.78672719 0.76945484
-0.012023454 -0.78654462 0.76875448
-0.012023408 -0.78625083 0.76892722
-0.014078408 -0.79229486 0.86059111
-0.014078389 -0.79216409 0.86058027
-0.014078382 -0.79208636 0.86053771
-0.014078295 -0.79165471 0.86073488
-0.014078324 -0.79173273 0.86058658
-0.014078324 -0.79168689 0.86051929
-0.014078306 -0.79155964 0.86051202
-0.014078285 -0.79141819 0.86051178
-0.01407828 -0.79135114 0.86045861
-0.014078288 -0.79133713 0.86037374
-0.014078229 -0.79102933 0.86048985
-0.014078227 -0.79097641 0.86042964
-0.01407822 -0.79089874 0.86038709
-0.014078168 -0.79062277 0.86047852
-0.014078143 -0.79046369 0.86048889
-0.014078128 -0.79035056 0.86047453
-0.014078117 -0.79025513 0.86044252
-0.014078091 -0.79009247 0.86045641
-0.014078075 -0.78997582 0.86043853
-0.014078084 -0.78996897 0.86034656
-0.014078084 -0.78992307 0.86028641
-0.014078044 -0.78969669 0.86034256
-0.01407799 -0.78941721 0.86044461
-0.014077952 -0.78919792 0.86049372
-0.01407793 -0.78905648 0.86050051
-0.014077919 -0.78896111 0.86046857
-0.014077917 -0.78890461 0.86041188
-0.014077886 -0.78872073 0.86043984
-0.014077851 -0.78851914 0.86048543
-0.014077825 -0.78836 0.86049575
-0.014077808 -0.78823984 0.86048847
-0.014077807 -0.78818691 0.86042827
-0.014077786 -0.78804898 0.86042452
-0.014077757 -0.78787571 0.86044896
-0.014077751 -0.78779805 0.8604064
-0.014077677 -0.78743005 0.86056834
-0.014077642 -0.78723198 0.86061049
-0.014077634 -0.78714365 0.86057138
-0.014077638 -0.78711551 0.8604936
-0.014077657 -0.78715104 0.86037344
-0.014077686 -0.78722912 0.86022508
-0.014077677 -0.78714788 0.86018604
-0.014077595 -0.78674096 0.86037272
-0.014077528 -0.78639776 0.86050999
-0.014077529 -0.78635544 0.86044627
-0.014077526 -0.78629541 0.86039311
-0.014077504 -0.78615403 0.86039287
-0.01407749 -0.78604442 0.86037505
-0.014077492 -0.78600216 0.86030424
-0.014077463 -0.78582889 0.86032867
-0.014077397 -0.78549272 0.86046594
-0.014077405 -0.78548229 0.86037755
-0.014077393 -0.78538334 0.86034912
-0.014077385 -0.78529853 0.86031359
-0.014077385 -0.78525269 0.86024636
-0.014077375 -0.78516084 0.86021787
-0.01407733 -0.78491676 0.86029172
-0.014077263 -0.78458065 0.86042899
-0.01407724 -0.7844286 0.86043936
-0.014077252 -0.78443581 0.86034036
-0.014077229 -0.78429085 0.86034364
-0.014077205 -0.7841388 0.86035401
-0.014077188 -0.78401512 0.86034316
-0.014077196 -0.78400463 0.86025476
-0.014077178 -0.78387737 0.86024743
-0.014077156 -0.78373593 0.86025429
-0.01407714 -0.78361928 0.86023641
-0.014077131 -0.78353095 0.8602044
-0.014077118 -0.78342849 0.86017948
-0.014077098 -0.78329414 0.86017925
-0.014077066 -0.78310317 0.86021429
-0.014077056 -0.78301835 0.86017877
-0.014077046 -0.7829265 0.86015034
-0.014077011 -0.78272843 0.86019242
-0.014076983 -0.78255516 0.86021686
-0.014076964 -0.78242791 0.86020952
-0.014076929 -0.78222978 0.8602587
-0.014076903 -0.78207064 0.8602761
-0.014076899 -0.78200358 0.86022294
-0.014076902 -0.78197187 0.86014867
-0.014076892 -0.78188354 0.86011666
-0.014076858 -0.78168553 0.86015874
-0.014076817 -0.78146261 0.86022556
-0.014076745 -0.78110528 0.86037695
-0.014076745 -0.78105944 0.86031675
-0.014076774 -0.78113747 0.8601684
-0.014076781 -0.78111994 0.86007994
-0.014076745 -0.78091478 0.86012912
-0.014076694 -0.78064948 0.86022413
-0.014076671 -0.78050095 0.86023092
-0.014076668 -0.78044099 0.86017776
-0.014076665 -0.78038096 0.86012465
-0.014076652 -0.78027844 0.86010677
-0.014076633 -0.78015119 0.86009949
-0.01407662 -0.78004867 0.86007458
-0.014076598 -0.77990371 0.86008489
-0.014076567 -0.77972335 0.86011642
-0.014076549 -0.77959961 0.86011267
-0.014076556 -0.7795856 0.86002779
-0.014076559 -0.77955037 0.85995704
-0.014076521 -0.77933818 0.86001319
-0.014076486 -0.77914715 0.86006236
-0.014076473 -0.77904469 0.86003745
-0.014076459 -0.77893865 0.86002308
-0.014076434 -0.77878302 0.86003697
-0.014076388 -0.77854246 0.86012143
-0.014076372 -0.77842581 0.86011058
-0.014076348 -0.77827728 0.86012447
-0.01407632 -0.77810752 0.86015248
-0.014076296 -0.77796257 0.86016279
-0.014076286 -0.77787071 0.86013436
-0.014076288 -0.77783549 0.86006361
-0.014076287 -0.77778608 0.86000693
-0.014076272 -0.77767295 0.85999256
-0.014076259 -0.777574 0.85997117
-0.014076237 -0.77742904 0.85998154
-0.014076205 -0.77724868 0.8600201
-0.014076179 -0.77709305 0.86004108
-0.014076144 -0.7768985 0.86008668
-0.014076133 -0.77680308 0.86006176
-0.014076117 -0.77669001 0.8600474
-0.014076101 -0.77656978 0.86004013
-0.014076102 -0.77653098 0.85997289
-0.014076095 -0.77645683 0.85993391
-0.014076062 -0.77626938 0.85997951
-0.014076039 -0.77612442 0.85998988
-0.014076028 -0.77603251 0.85996139
-0.014075988 -0.77581674 0.86002821
-0.014075964 -0.7756682 0.8600421
-0.014075952 -0.77556926 0.8600207
-0.014075934 -0.7754491 0.86001343
-0.014075912 -0.77530408 0.86002374
-0.014075902 -0.77522284 0.85999179
-0.014075897 -0.77514869 0.85994571
-0.014075871 -0.77499306 0.85996664
-0.014075837 -0.77480561 0.86001229
-0.014075818 -0.77467829 0.86001205
-0.014075797 -0.77454394 0.86001891
-0.014075772 -0.77438837 0.86003983
-0.01407574 -0.77420801 0.86007839
-0.014075722 -0.77408427 0.86007464
-0.014075724 -0.77404898 0.86000389
-0.014075724 -0.77400315 0.85994369
-0.014075706 -0.77387941 0.85993993
-0.014075667 -0.77366716 0.86000323
-0.014075641 -0.77350801 0.86002767
-0.014075629 -0.77341616 0.85999924
-0.014075612 -0.77329594 0.859999
-0.014075581 -0.77311909 0.86003411
-0.014075548 -0.77293521 0.86007619
-0.014075529 -0.7728079 0.86007595
-0.014075529 -0.77276206 0.86001575
-0.014075544 -0.77277637 0.85990971
-0.014075556 -0.77278012 0.85980719
-0.01407556 -0.77275193 0.85972935
-0.014075539 -0.77261758 0.8597362
-0.01407551 -0.77245134 0.85976774
-0.014075505 -0.77238071 0.85972518
-0.014075504 -0.77232778 0.85966498
-0.014075495 -0.77224654 0.85963303
-0.014075484 -0.77215469 0.8596046
-0.014075478 -0.77208048 0.85956556
-0.014075477 -0.77203107 0.85950887
-0.014075477 -0.77198172 0.85944515
-0.014075483 -0.77196419 0.85936385
-0.014075493 -0.77195728 0.85927188
-0.014075493 -0.77191138 0.85921168
-0.014075489 -0.77184784 0.85916209
-0.014075487 -0.77179492 0.85910189
-0.014075472 -0.77168536 0.8590911
-0.014075447 -0.77153331 0.85910851
-0.014075439 -0.77145559 0.85907304
-0.014075445 -0.77143449 0.8589952
-0.014075446 -0.77138865 0.85892791
-0.014075447 -0.77134633 0.85886425
-0.014075448 -0.77130401 0.85880053
-0.014075431 -0.77119088 0.85879326
-0.014075425 -0.77111316 0.8587507
-0.014075433 -0.77110273 0.85866225
-0.014075436 -0.7710675 0.8585915
-0.014075431 -0.77100039 0.85854542
-0.014075426 -0.77093685 0.85850286
-0.014075427 -0.7708981 0.85843563
-0.014075431 -0.77086639 0.85836136
-0.014075416 -0.77075326 0.858347
-0.014075383 -0.77056932 0.85839617
-0.014075369 -0.77046329 0.85837477
-0.014075376 -0.77044576 0.85829341
-0.014075391 -0.77046365 0.85818386
-0.014075403 -0.77046734 0.85808134
-0.0140754 -0.7704109 0.85803175
-0.014075379 -0.77027649 0.85803854
-0.014075365 -0.77016693 0.85802066
-0.014075374 -0.77016002 0.85792875
-0.014075382 -0.77014601 0.85784388
-0.014075383 -0.77010369 0.85778016
-0.01407538 -0.77004373 0.85772705
-0.014075371 -0.76996243 0.85769504
-0.014075369 -0.76990598 0.85763842
-0.014075372 -0.76987785 0.85756761
-0.01407538 -0.76986027 0.85747921
-0.014075391 -0.76986402 0.85738379
-0.014075399 -0.76985002 0.85729182
-0.014075407 -0.76983601 0.85720694
-0.014075422 -0.76985037 0.8571009
-0.014075418 -0.76979035 0.85704774
-0.014075412 -0.76971972 0.85700518
-0.01407541 -0.7696597 0.85695207
-0.01407543 -0.76970237 0.85682487
-0.014075458 -0.76976979 0.85667294
-0.014075468 -0.76976645 0.85657752
-0.014075471 -0.76973116 0.85650671
-0.014075479 -0.76972073 0.85641831
-0.014075502 -0.76976699 0.85628051
-0.014075525 -0.7698167 0.85614622
-0.014075539 -0.76982749 0.85603666
-0.014075546 -0.76980996 0.8559553
-0.014075551 -0.76978534 0.85587394
-0.014075556 -0.76975721 0.8557961
-0.01407556 -0.7697255 0.85572183
-0.014075578 -0.76975757 0.85559815
-0.014075618 -0.76987809 0.85540742
-0.014075636 -0.76990658 0.85528725
-0.014075648 -0.76991028 0.85518473
-0.014075662 -0.76992112 0.85507518
-0.014075692 -0.76999563 0.85491616
-0.014075745 -0.77016926 0.85467964
-0.014075784 -0.77028984 0.85448891
-0.014076999 -0.77508104 0.85015213
-0.014077133 -0.77559459 0.84965456
-0.014077201 -0.77583551 0.84937215
-0.014077258 -0.77602684 0.84912497
-0.014077312 -0.77620405 0.84888488
-0.014077375 -0.77641666 0.84861654
-0.014077434 -0.77661866 0.84835881
-0.014077513 -0.77689499 0.84804112
-0.014077722 -0.77733558 0.84677613
-0.014077743 -0.77727592 0.84651798
-0.014077737 -0.77720177 0.84647185
-0.014077842 -0.77759141 0.84606242
-0.014077854 -0.7775951 0.8459599
-0.014077825 -0.77742183 0.84599143
-0.014077837 -0.77742553 0.84588891
-0.014077867 -0.77750361 0.84571934
-0.014077877 -0.77749318 0.84562385
-0.014077895 -0.77752525 0.84550017
-0.014077928 -0.77760684 0.84532708
-0.014077942 -0.77761763 0.84521747
-0.014077997 -0.77779841 0.84497386
-0.014078029 -0.77788353 0.84479719
-0.014078029 -0.77783418 0.84473348
-0.014078019 -0.77774227 0.84470505
-0.014078012 -0.7776646 0.84466249
-0.014078019 -0.77764708 0.84457403
-0.014078035 -0.77766496 0.84445739
-0.014078056 -0.77770406 0.84431958
-0.01407811 -0.77787775 0.84407592
-0.014078151 -0.77799827 0.84387815
-0.014078186 -0.77809405 0.84369802
-0.014078679 -0.77914226 0.84074771
-0.014078662 -0.77902204 0.84074038
-0.014078627 -0.77883106 0.84078956
-0.014078616 -0.77873564 0.84076464
-0.014078696 -0.77901554 0.84042931
-0.014078777 -0.77929896 0.84009033
-0.014078745 -0.77911502 0.84013247
-0.014078793 -0.77926391 0.83990645
-0.0140788 -0.77924287 0.83982158
-0.014078815 -0.77925724 0.83970135
-0.014078832 -0.77927512 0.83957767
-0.014078827 -0.77920097 0.8395316
-0.014078819 -0.77912325 0.83948898
-0.014078817 -0.7790668 0.83943236
-0.014078805 -0.77896786 0.83940387
-0.014078875 -0.77920526 0.83910382
-0.014078987 -0.7796126 0.83866256
-0.014078992 -0.77958447 0.83857763
