# .PCD v0.7 - Point Cloud Data file format
VERSION 0.7
FIELDS x y z
SIZE 4 4 4
TYPE F F F
COUNT 1 1 1
WIDTH 1379
HEIGHT 1
VIEWPOINT 0 0 0 1 0 0 0
POINTS 1379
DATA ascii
0.065921172 -0.77868384 0.76453352
0.065921172 -0.77875143 0.7643038
0.065921158 -0.77903962 0.76321179
0.065921158 -0.77902216 0.76308095
0.065921158 -0.77898347 0.76297128
0.065921158 -0.77900141 0.76279807
0.065921172 -0.77879626 0.76288259
0.06592115 -0.77916843 0.76229274
0.06592121 -0.77835393 0.76309752
0.065921217 -0.77826208 0.76304787
0.065921225 -0.77819502 0.76297349
0.065921135 -0.77943516 0.76137048
0.06592121 -0.77840835 0.76226676
0.06592121 -0.77838737 0.76213235
0.06592121 -0.77843368 0.76192385
0.065921202 -0.77860755 0.76156706
0.065921232 -0.77813661 0.76196575
0.065921225 -0.77825761 0.7615205
0.06592124 -0.77808428 0.76156616
0.065921225 -0.77841502 0.76041061
0.06592121 -0.77856052 0.76008201
0.065921225 -0.77836239 0.76015949
0.06592121 -0.77862126 0.75970381
0.06592121 -0.77869946 0.75944942
0.065921262 -0.77792037 0.76021886
0.065921262 -0.77787811 0.7601127
0.065921247 -0.77818304 0.75959706
0.065921232 -0.77841002 0.75917315
0.065921217 -0.77865118 0.75873512
0.065921202 -0.77880025 0.75839597
0.065921225 -0.77853835 0.75855821
0.06592124 -0.77835083 0.75862503
0.065921247 -0.77828026 0.75855422
0.065921269 -0.77798647 0.75874108
0.065921195 -0.77903181 0.75733924
0.06592121 -0.77888685 0.75736374
0.065921217 -0.77871001 0.75741297
0.065921254 -0.77832514 0.75709057
0.065921232 -0.77866906 0.75652194
0.065921247 -0.77853251 0.75574034
0.065921262 -0.77840245 0.75527698
0.065921269 -0.7782256 0.75532615
0.065921277 -0.77822965 0.7550115
0.065921247 -0.77869099 0.75397992
0.065921232 -0.77884364 0.75364429
0.065921247 -0.77881712 0.75256944
0.065921336 -0.777542 0.75395322
0.065921254 -0.77877653 0.75150871
0.065921284 -0.77837288 0.75184035
0.065921299 -0.77818185 0.75191075
0.065921299 -0.77822816 0.75170225
0.065921329 -0.77783221 0.75170159
0.065921336 -0.77770138 0.75170487
0.065921277 -0.77855927 0.75034869
0.065921359 -0.77746123 0.75152063
0.065921366 -0.77735525 0.75148511
0.065921269 -0.77880096 0.74957126
0.065921314 -0.77819705 0.74919194
0.065921329 -0.77799892 0.74926943
0.065921336 -0.77796376 0.74914914
0.065921329 -0.77806675 0.74886292
0.065921381 -0.77756912 0.74625993
0.065921389 -0.77752686 0.74614674
0.065921403 -0.77731812 0.74624187
0.065921403 -0.77729356 0.74611098
0.065921411 -0.77748519 0.74359047
0.065921418 -0.77788037 0.73778933
0.065921433 -0.77767515 0.73788798
0.065921448 -0.77753723 0.73790544
0.065921456 -0.77760386 0.73613065
0.065921463 -0.77747661 0.73612338
0.065921471 -0.77735639 0.73611611
0.065921471 -0.77740628 0.73588288
0.065921493 -0.77714223 0.73521417
0.065921515 -0.77717906 0.73225504
0.063885376 -0.79072374 0.86161685
0.063885435 -0.79034162 0.86178595
0.063885465 -0.79015416 0.86181748
0.063885577 -0.78938764 0.86138135
0.063885592 -0.78930992 0.86133879
0.063885935 -0.78708243 0.86142707
0.063885957 -0.78694808 0.86142689
0.063885964 -0.78690577 0.86135608
0.063885979 -0.78679973 0.86133468
0.063886009 -0.78661227 0.86137331
0.063886024 -0.78650272 0.86134833
0.063886032 -0.78645688 0.86128819
0.063886046 -0.78634727 0.86126328
0.063886091 -0.78609616 0.86134416
0.063886128 -0.78586268 0.8614074
0.063886136 -0.78579205 0.86135781
0.063886136 -0.78577453 0.86127645
0.063886136 -0.78576052 0.86119157
0.063886151 -0.7857005 0.86113846
0.063886195 -0.78542453 0.86123699
0.063886233 -0.78519112 0.86130023
0.063886262 -0.78500015 0.86133528
0.063886262 -0.78497905 0.86125749
0.063886233 -0.78512079 0.86105973
0.063886337 -0.78452986 0.86137342
0.063886359 -0.78437424 0.86138731
0.063886374 -0.78427529 0.86135888
0.063886411 -0.78404891 0.86142212
0.063886426 -0.78393584 0.86140782
0.063886426 -0.78393245 0.86131233
0.063886426 -0.78391135 0.86123455
0.063886434 -0.78388321 0.8611567
0.063886434 -0.7838515 0.86108243
0.063886434 -0.78383392 0.86100107
0.063886456 -0.78371376 0.86098671
0.063886501 -0.78344494 0.8610782
0.063886523 -0.78329289 0.86108857
0.063886546 -0.78315854 0.86108834
0.063886553 -0.78308791 0.86104578
0.063886553 -0.78306681 0.8609609
0.063886568 -0.78298199 0.86092544
0.063886628 -0.78263175 0.86107689
0.063886672 -0.78235579 0.86117542
0.063886665 -0.78239137 0.86105531
0.063886672 -0.78231716 0.86100918
0.063886702 -0.78212267 0.86104774
0.063886732 -0.7819317 0.86108989
0.063886784 -0.78164512 0.86119193
0.063886806 -0.78150016 0.8612023
0.063886821 -0.78139061 0.86118448
0.063886829 -0.78134471 0.86111724
0.063886836 -0.78129178 0.86106408
0.063886859 -0.78114331 0.86107093
0.063886888 -0.78091705 0.86104226
0.063886903 -0.78082871 0.86101031
0.063886926 -0.78069085 0.86101365
0.063887022 -0.78006136 0.86109036
0.063887037 -0.77998012 0.86105138
0.063887045 -0.77993071 0.8609947
0.063887067 -0.77977514 0.86100858
0.063887119 -0.77942884 0.86088073
0.063887149 -0.77923787 0.86092287
0.063887224 -0.7787745 0.86107415
0.063887239 -0.7787109 0.86102456
0.063887388 -0.77769995 0.86090267
0.063887425 -0.77750188 0.86095184
0.063887492 -0.77708447 0.86107141
0.063887499 -0.77701741 0.86102533
0.063887507 -0.77695382 0.86097574
0.063887514 -0.77691859 0.86090493
0.063887604 -0.7763105 0.86087567
0.063887641 -0.77610183 0.86093545
0.063887864 -0.77466989 0.86095077
0.063888043 -0.77349961 0.86095947
0.063888066 -0.77335817 0.86097342
0.06388808 -0.77327693 0.86093438
0.06388811 -0.77307564 0.86079615
0.063888177 -0.77268642 0.8609935
0.063888222 -0.77241397 0.8611027
0.0638882 -0.77250975 0.86093664
0.063888349 -0.77156937 0.86087859
0.063888349 -0.77155536 0.86079371
0.063888378 -0.77135378 0.8608464
0.063888416 -0.77113092 0.86092025
0.063888431 -0.77101421 0.86090946
0.063888453 -0.77090466 0.86089867
0.063888445 -0.77091187 0.86079973
0.063888445 -0.77090853 0.86070424
0.063888453 -0.77086264 0.86064404
0.063888468 -0.77076721 0.86061913
0.063888483 -0.77064347 0.86061543
0.063888498 -0.77057284 0.86057287
0.06388849 -0.77056944 0.86047745
0.06388849 -0.77056253 0.86039257
0.063888505 -0.7704919 0.86035001
0.063888513 -0.77041769 0.86031097
0.06388852 -0.77037895 0.86024374
0.06388852 -0.77034724 0.86016947
0.063888535 -0.77027661 0.86012691
0.06388855 -0.77017409 0.86010909
0.063888557 -0.77008575 0.86007714
0.063888572 -0.77001506 0.86004168
0.06388858 -0.76992679 0.86000967
0.063888595 -0.76984197 0.85997421
0.063888602 -0.76977837 0.85993165
0.063888609 -0.76975024 0.8598538
0.063888609 -0.76972562 0.85977954
0.063888624 -0.7696479 0.85973698
0.063888639 -0.76953477 0.85972971
0.063888647 -0.76945353 0.85969782
0.063888654 -0.76943952 0.85961288
0.063888654 -0.76940781 0.85953861
0.063888662 -0.7693584 0.85948199
0.063888669 -0.76930189 0.85942531
0.063888684 -0.76921713 0.85939687
0.063888691 -0.76913941 0.85936141
0.063888699 -0.76906878 0.85931885
0.063888714 -0.76900876 0.85926574
0.063888714 -0.76895934 0.85920906
0.063888729 -0.76889223 0.85916299
0.063888736 -0.76883572 0.8591134
0.063888736 -0.7687934 0.85904968
0.063888751 -0.76871926 0.8590036
0.063888766 -0.76862735 0.85898226
0.063888773 -0.7685461 0.85895032
0.063888773 -0.76855332 0.85884422
0.063888773 -0.7685464 0.85875231
0.063888781 -0.76850057 0.85869211
0.063888781 -0.76847237 0.85861433
0.063888788 -0.76840526 0.85857528
0.063888811 -0.76827091 0.85858214
0.063888818 -0.76821089 0.85852903
0.063888811 -0.76823229 0.85841596
0.063888803 -0.768282 0.85828167
0.063888803 -0.76827866 0.85818619
0.063888811 -0.76820445 0.8581472
0.063888833 -0.76806301 0.85816109
0.06388884 -0.76801008 0.85810089
0.063888825 -0.76809168 0.85794193
0.063888818 -0.76812369 0.85781825
0.063888811 -0.76813442 0.85771573
0.063888803 -0.76816648 0.85759205
0.063888803 -0.76818079 0.85748601
0.063888811 -0.76812786 0.85742581
0.063888818 -0.76807487 0.8573727
0.063888811 -0.76808923 0.85726666
0.063888811 -0.76808226 0.85717469
0.063888818 -0.76801163 0.8571322
0.063888818 -0.76799059 0.85704726
0.063888811 -0.7680403 0.85691303
0.063888803 -0.76806879 0.85679287
0.063888796 -0.76809722 0.8566727
0.063888781 -0.76817173 0.85651374
0.063888773 -0.76818603 0.8564077
0.063888781 -0.7681402 0.8563475
0.063888781 -0.76813328 0.85625553
0.063888766 -0.76820427 0.85610008
0.063888751 -0.76828581 0.85594112
0.063888744 -0.7683143 0.85582101
0.063888744 -0.76831448 0.85572201
0.063888744 -0.7682721 0.85565829
0.063888453 -0.76993972 0.85423619
0.06388846 -0.76991862 0.85415125
0.063887715 -0.77413213 0.8503468
0.063887671 -0.7743907 0.85004669
0.063887641 -0.77455372 0.84982073
0.063887611 -0.77469194 0.84961236
0.063887596 -0.77480179 0.84942514
0.063887566 -0.77496129 0.84920269
0.063887537 -0.77508885 0.84900486
0.063887537 -0.77509969 0.84889531
0.063887529 -0.77512819 0.84876806
0.063887499 -0.77528405 0.84854913
0.06388744 -0.77559227 0.84820664
0.063886493 -0.77940887 0.83190697
0.063886456 -0.77929997 0.82931876
0.063886411 -0.77935213 0.82768548
0.063886374 -0.77950847 0.82721192
0.063885912 -0.78029412 0.81151897
0.063885957 -0.78002167 0.81164932
0.063885987 -0.77984482 0.81169146
0.06388595 -0.78004688 0.81137717
0.063885912 -0.78021348 0.8110981
0.063885979 -0.77984542 0.81132376
0.063885979 -0.77982086 0.81122118
0.063885927 -0.78010786 0.81082922
0.063885942 -0.77998412 0.81081843
0.063885987 -0.77972937 0.81093824
0.063885994 -0.7796694 0.81087095
0.063885994 -0.77964127 0.81077194
0.063885994 -0.77963793 0.81065524
0.063885987 -0.77967 0.81049615
0.063885994 -0.77962065 0.81041831
0.063885979 -0.77965623 0.8102628
0.063885964 -0.77973789 0.81006145
0.063885972 -0.77969557 0.80998355
0.063885979 -0.77962142 0.80992335
0.063885972 -0.77966768 0.80975723
0.063885957 -0.77974576 0.8095594
0.06388595 -0.7797389 0.80943918
0.06388595 -0.77975678 0.80930132
0.06388595 -0.77970392 0.80922699
0.063885957 -0.7796616 0.80914205
0.06388595 -0.77970433 0.80897242
0.06388595 -0.77968323 0.80887341
0.06388595 -0.77966928 0.80876023
0.063885935 -0.77973324 0.80856943
0.063885927 -0.7797724 0.80841041
0.06388592 -0.77976906 0.80828661
0.063885927 -0.7797091 0.80821937
0.063885942 -0.77964199 0.80815917
0.06388592 -0.77973074 0.80795068
0.063885905 -0.77979112 0.8077634
0.063885905 -0.77980196 0.80763263
0.063885897 -0.77982694 0.80748063
0.063885905 -0.77977049 0.80740982
0.06388592 -0.77964324 0.80740255
0.063885927 -0.77960092 0.80731761
0.063885897 -0.77974278 0.80705625
0.063885882 -0.77983862 0.80684072
0.063885882 -0.77982819 0.80672401
0.063885882 -0.77978587 0.80663908
0.063885882 -0.77975774 0.80654007
0.063885882 -0.77976859 0.80640221
0.063885875 -0.77978653 0.80625725
0.063885875 -0.77978671 0.80612999
0.06388586 -0.77982587 0.80596387
0.063885853 -0.77987212 0.80579782
0.06388586 -0.77982628 0.8057093
0.063885868 -0.77976984 0.80563849
0.063885853 -0.77980542 0.80548304
0.063885853 -0.77981275 0.8053416
0.06388586 -0.77973861 0.80528843
0.063885875 -0.77963966 0.80526
0.063885882 -0.77960801 0.80516452
0.063885868 -0.77964711 0.8049984
0.06388586 -0.77969694 0.80482167
0.063885853 -0.77972549 0.80466616
0.063885845 -0.77971858 0.80454594
0.063885845 -0.77971172 0.80442572
0.063885838 -0.77976149 0.80424905
0.063885838 -0.77975106 0.80413234
0.063885845 -0.77969462 0.80406153
0.063885838 -0.77968776 0.80394131
0.063885838 -0.77967733 0.80381757
0.063885838 -0.77965987 0.80370796
0.06388583 -0.77968484 0.80355597
0.06388583 -0.7796815 0.80343223
0.063885838 -0.77964276 0.80334377
0.063885838 -0.77962881 0.80323058
0.06388583 -0.77964318 0.8030892
0.063885815 -0.77969652 0.80290192
0.063885801 -0.77975339 0.80271816
0.063885808 -0.77972174 0.80262262
0.063885801 -0.77972192 0.80249536
0.063885793 -0.77976465 0.80232573
0.063885793 -0.77974004 0.80221605
0.063885808 -0.77966237 0.80216646
0.063885808 -0.77964485 0.80205679
0.063885801 -0.77967691 0.80189776
0.063885793 -0.77966654 0.80177402
0.063885793 -0.77965611 0.80165732
0.063885801 -0.77960324 0.8015759
0.063885801 -0.77958572 0.80146629
0.063885793 -0.7796213 0.80130368
0.063885793 -0.77961802 0.80117995
0.063885786 -0.77963591 0.80102795
0.063885778 -0.77967864 0.80085832
0.063885771 -0.77968591 0.80072397
0.063885771 -0.77966845 0.80060726
0.063885771 -0.77967221 0.80047649
0.063885771 -0.77964759 0.80036682
0.063885771 -0.77962655 0.80026072
0.063885771 -0.77959841 0.80016172
0.063885763 -0.77961993 0.80000615
0.063885748 -0.77971572 0.79978359
0.063885741 -0.77974075 0.7996245
0.063885741 -0.77971619 0.79952192
0.063885741 -0.77969867 0.79940528
0.063885733 -0.77973074 0.79924619
0.063885726 -0.77975577 0.79908717
0.063885733 -0.77970284 0.79901278
0.063885733 -0.77968538 0.79889613
0.063885719 -0.77973515 0.79871941
0.063885719 -0.77970701 0.79861331
0.063885733 -0.77964348 0.79854953
0.063885733 -0.7795977 0.79846108
0.063885726 -0.77962977 0.79829496
0.063885719 -0.77966541 0.79813242
0.063885719 -0.77965498 0.79800862
0.063885711 -0.77966225 0.79787427
0.063885704 -0.77971208 0.79769051
0.063885696 -0.77970874 0.79755974
0.063885704 -0.77967709 0.79746419
0.063885696 -0.77968085 0.79732633
0.063885696 -0.77966338 0.79720962
0.063885704 -0.77963525 0.79710352
0.063885689 -0.77968502 0.7969268
0.063885674 -0.77975607 0.79672188
0.063885659 -0.77982002 0.79652399
0.063885652 -0.77982378 0.79639316
0.063885666 -0.77974612 0.79633647
0.063885681 -0.77963656 0.79631156
0.063885689 -0.77960485 0.79621601
0.063885666 -0.77969009 0.79599696
0.063885666 -0.77967966 0.79587322
0.063885674 -0.77962321 0.79579532
0.063885666 -0.77965885 0.79562569
0.063885666 -0.77964491 0.79551256
0.063885681 -0.77953535 0.79548758
0.063885674 -0.77957451 0.79531443
0.063885652 -0.77964908 0.79510593
0.063885637 -0.77973783 0.79488337
0.063885614 -0.77983016 0.79465723
0.063885629 -0.77975953 0.79459345
0.063885629 -0.77970666 0.79451209
0.063885629 -0.77969623 0.79438829
0.063885644 -0.77959728 0.79435986
0.063885644 -0.77959043 0.79423261
0.063885637 -0.77963668 0.79405236
0.063885622 -0.77970064 0.79385448
0.063885607 -0.77974337 0.79367065
0.063885614 -0.77969044 0.79359633
0.063885622 -0.77964461 0.79350787
0.063885622 -0.77963424 0.79338413
0.063885614 -0.77963799 0.79324621
0.063885607 -0.77967715 0.79307306
0.063885614 -0.77962071 0.79299521
0.063885622 -0.77954304 0.79293847
0.063885622 -0.7795468 0.79280061
0.063885614 -0.77955765 0.79265565
0.063885614 -0.77955079 0.79252839
0.063885607 -0.77957225 0.79237288
0.063885599 -0.77959019 0.79222083
0.063885584 -0.77965057 0.79202652
0.063885577 -0.7796827 0.79185331
0.06388557 -0.77972186 0.79168016
0.063885562 -0.7797327 0.7915352
0.06388557 -0.77969044 0.79144317
0.063885577 -0.77962339 0.79137594
0.063885577 -0.77961296 0.79125214
0.06388557 -0.77961671 0.79111427
0.06388557 -0.77961338 0.79098344
0.063885562 -0.7796526 0.79080319
0.063885562 -0.77964216 0.79067945
0.063885562 -0.77959633 0.790591
0.063885562 -0.77960366 0.79044956
0.063885562 -0.77959323 0.79032582
0.063885562 -0.77956867 0.79021615
0.063885555 -0.77956891 0.79007477
0.063885547 -0.77961165 0.78989804
0.06388554 -0.77965432 0.78971428
0.06388554 -0.77962625 0.78960812
0.063885547 -0.77954853 0.78955144
0.063885562 -0.77946377 0.78950185
0.063885577 -0.77935064 0.78948748
0.063885592 -0.77927649 0.78942728
0.063885577 -0.77931213 0.78925055
0.063885547 -0.77947527 0.78894675
0.063885525 -0.7795676 0.78871357
0.063885525 -0.77955365 0.78858626
0.063885525 -0.77955389 0.78845191
0.063885503 -0.77966744 0.78819048
0.063885488 -0.77971727 0.78800672
0.063885503 -0.77964312 0.78794646
0.063885503 -0.77959371 0.78786153
0.063885495 -0.77965415 0.78765303
0.063885488 -0.77966857 0.78750455
0.063885488 -0.77962983 0.78740907
0.063885488 -0.77961588 0.78728175
0.06388548 -0.77965152 0.78710502
0.063885473 -0.77969074 0.78692478
0.063885465 -0.77970159 0.78677279
0.063885473 -0.77965575 0.78668433
0.063885488 -0.77954972 0.78666294
0.063885495 -0.77948976 0.78658861
0.063885473 -0.77959621 0.78633422
0.063885443 -0.77973455 0.78604805
0.06388545 -0.77969229 0.78595603
0.06388545 -0.77965003 0.78585696
0.063885443 -0.77968568 0.78568733
0.063885428 -0.77973551 0.78548944
0.063885443 -0.77966487 0.78542566
0.063885473 -0.77949154 0.78547138
0.063885473 -0.77947408 0.78535467
0.063885465 -0.77949905 0.78518856
0.06388545 -0.77954179 0.7849977
0.063885435 -0.77962351 0.78477508
0.063885428 -0.77964497 0.78460538
0.063885421 -0.77967 0.78444636
0.063885413 -0.77968442 0.78429079
0.063885406 -0.77972716 0.78409994
0.063885413 -0.77964234 0.78405029
0.063885428 -0.7795434 0.78401482
0.063885421 -0.77957904 0.78383809
0.063885406 -0.77962887 0.78364724
0.063885406 -0.77963263 0.78349519
0.063885398 -0.77964348 0.7833432
0.063885406 -0.77960831 0.78324413
0.063885413 -0.77955186 0.78316629
0.063885421 -0.77947772 0.78310603
0.063885428 -0.77940357 0.78303874
0.063885435 -0.7793507 0.78295738
0.063885443 -0.77928716 0.78288656
0.063885435 -0.77931929 0.78271335
0.063885413 -0.77941155 0.78247309
0.063885398 -0.77947557 0.78225398
0.063885391 -0.77951121 0.78207725
0.063885383 -0.77955395 0.7818864
0.063885383 -0.77950811 0.78179795
0.063885413 -0.77934545 0.78183305
0.063885406 -0.77938819 0.7816422
0.063885383 -0.77948052 0.78140193
0.063885383 -0.77943826 0.78130287
0.063885383 -0.77942783 0.78117913
0.063885361 -0.77953434 0.78091764
0.063885361 -0.77953809 0.78077269
0.063885339 -0.77963394 0.78052181
0.063885354 -0.77955627 0.78046513
0.063885354 -0.77951044 0.78037667
0.063885361 -0.77946109 0.78028464
0.063885376 -0.77935511 0.78025621
0.063885354 -0.77945095 0.78000534
0.063885324 -0.77959996 0.77970153
0.063885324 -0.77961081 0.77954954
0.063885331 -0.77952605 0.77949989
0.063885368 -0.77931732 0.77958089
0.063885376 -0.779275 0.77948886
0.063885339 -0.7794311 0.77917093
0.063885316 -0.77956945 0.77887768
0.063885309 -0.77956969 0.77873629
0.063885324 -0.77946013 0.77871138
0.063885331 -0.77943558 0.77859461
0.063885324 -0.77946061 0.77842146
0.063885309 -0.77951044 0.77822351
0.063885301 -0.77955317 0.77803266
0.063885301 -0.77953571 0.77790892
0.063885272 -0.77964574 0.77764392
0.063885279 -0.77962118 0.77752721
0.063885301 -0.77947617 0.77754468
0.063885294 -0.77947998 0.77739263
0.063885279 -0.77956873 0.77714884
0.063885257 -0.77966464 0.77689797
0.063885264 -0.77959752 0.77683067
0.063885242 -0.77972174 0.77654451
0.063885219 -0.77981764 0.77629364
0.063885219 -0.77980369 0.77616632
0.063885242 -0.77964097 0.77620143
0.063885257 -0.77956688 0.77613413
0.063885234 -0.77964145 0.77591151
0.063885249 -0.77954608 0.77587247
0.063885272 -0.77941883 0.7758652
0.063885272 -0.77940488 0.77573788
0.063885294 -0.77924573 0.77576941
0.063885316 -0.77912199 0.77575862
0.063885279 -0.77930641 0.77541244
0.063885242 -0.77947664 0.77507329
0.063885242 -0.77947688 0.77492481
0.063885257 -0.77938151 0.77488577
0.063885257 -0.77935344 0.77477258
0.063885257 -0.7793501 0.77462763
0.063885257 -0.77933973 0.77449679
0.063885257 -0.77931517 0.77437299
0.063885227 -0.77947128 0.77405506
0.063885212 -0.77952814 0.77384305
0.063885204 -0.77954966 0.77367336
0.063885197 -0.77955699 0.77351779
0.063885204 -0.77948993 0.77344346
0.063885212 -0.77944767 0.7733444
0.063885175 -0.77964622 0.77297699
0.063885175 -0.77963942 0.77283555
0.063885137 -0.77979904 0.77250701
0.063885212 -0.77937776 0.77283514
0.063885152 -0.77970743 0.77231598
0.063885145 -0.77970058 0.77218157
0.06388516 -0.77960163 0.77214611
0.063885137 -0.77970457 0.7718811
0.063885137 -0.77970839 0.77172905
0.063885152 -0.77960944 0.77168649
0.06388513 -0.77970177 0.77143914
0.063885152 -0.77956742 0.77143896
0.063885152 -0.77956063 0.77129751
0.063885115 -0.77975208 0.7709372
0.063885123 -0.7796638 0.77088398
0.063885167 -0.77940547 0.77103561
0.06388519 -0.77927464 0.77103186
0.06388519 -0.77923948 0.77091867
0.063885167 -0.77936369 0.77063251
0.063885152 -0.77943832 0.7703957
0.063885242 -0.77889353 0.77057165
0.063885093 -0.77968723 0.76951933
0.063885108 -0.77956706 0.76950496
0.063885123 -0.77947521 0.76946241
0.063885078 -0.77970922 0.76904559
0.063885093 -0.77959257 0.76902771
0.063885152 -0.77924216 0.76927817
0.06388516 -0.77919632 0.76918262
0.063885167 -0.77914345 0.76909417
0.063885152 -0.77919686 0.76887858
0.06388513 -0.7793175 0.7685889
0.063885152 -0.77916545 0.76861334
0.06388519 -0.7789638 0.76870143
0.063885212 -0.77879757 0.76874006
0.063885085 -0.7794885 0.76779717
0.063885182 -0.77885926 0.76776791
0.063885182 -0.77884883 0.76762998
0.063885182 -0.77883846 0.76748502
0.063885182 -0.77881747 0.76736474
0.063885003 -0.77975994 0.76612884
0.063884996 -0.77979207 0.7659415
0.063885033 -0.77958685 0.76602602
0.063885085 -0.77926147 0.76610327
0.063885108 -0.77907419 0.76601464
0.063885137 -0.77890795 0.7660532
0.063885011 -0.77958477 0.7651245
0.063885041 -0.7794044 0.76517719
0.063885033 -0.77941221 0.76471055
0.063885033 -0.77936995 0.76461148
0.063885048 -0.7792958 0.76454419
0.063885018 -0.77942026 0.76410246
0.063885048 -0.77922928 0.76416576
0.063885048 -0.77913839 0.76350802
0.063885026 -0.7791996 0.76283282
0.063885048 -0.77899164 0.76246125
0.063884921 -0.7796368 0.76139456
0.063884936 -0.77953792 0.76135904
0.063885055 -0.77882308 0.76173973
0.063884966 -0.77929449 0.76102984
0.063884988 -0.77916014 0.76102966
0.063884996 -0.7790966 0.76095176
0.063885063 -0.77864468 0.76056212
0.063885048 -0.77863127 0.76010954
0.063884929 -0.77930814 0.75915247
0.063884959 -0.77908874 0.75925821
0.063884959 -0.77910316 0.75908852
0.063884944 -0.77913177 0.75889766
0.063884981 -0.77893722 0.75897157
0.063884944 -0.77912873 0.75859004
0.063884921 -0.77921045 0.75833917
0.063884921 -0.77921075 0.7581836
0.063884921 -0.77918619 0.75805277
0.063884914 -0.77922183 0.75785482
0.063884929 -0.77910167 0.75784045
0.063884974 -0.77881855 0.75802386
0.063884996 -0.77870542 0.75800246
0.063884847 -0.77934206 0.75568068
0.063884839 -0.77934235 0.75551802
0.063884832 -0.7793532 0.7553519
0.063884892 -0.77897137 0.75533712
0.063884847 -0.77907616 0.75395489
0.063884832 -0.77913666 0.75372517
0.063884817 -0.77919716 0.75349545
0.063884921 -0.77858508 0.75375253
0.063884862 -0.77879888 0.75270641
0.063884854 -0.77885228 0.75249082
0.063884847 -0.7788561 0.75232464
0.063884847 -0.77882451 0.75220084
0.063884832 -0.77888495 0.75197113
0.063884839 -0.7788533 0.75185442
0.063884854 -0.77867371 0.75143337
0.063884817 -0.77883387 0.75076544
0.06388481 -0.77884829 0.75058866
0.063884936 -0.77813298 0.75129461
0.063884795 -0.77887392 0.75007606
0.06388478 -0.77894145 0.74983931
0.063884713 -0.77903014 0.7474848
0.063884743 -0.7787835 0.74698234
0.063884862 -0.77812839 0.74762118
0.063884854 -0.77812153 0.7474727
0.063884862 -0.77806157 0.74738419
0.063884839 -0.77814358 0.74696362
0.063884847 -0.77811551 0.7468363
0.063884832 -0.77817243 0.74660301
0.063884787 -0.77837491 0.74602705
0.063884765 -0.77847081 0.74574792
0.06388475 -0.7783007 0.74384201
0.06388472 -0.7784391 0.74350631
0.063884698 -0.77854568 0.74320245
0.063884825 -0.77764523 0.74253279
0.063884795 -0.77779073 0.74218297
0.063884728 -0.77810633 0.74161428
0.063884705 -0.77821285 0.74131745
0.063884705 -0.77820963 0.74115127
0.063884661 -0.77823383 0.7392987
0.063884683 -0.77811366 0.7392844
0.06388475 -0.77771711 0.73963022
0.063884787 -0.77746934 0.73978537
0.063884735 -0.77752227 0.73770654
0.063884757 -0.77738786 0.7377134
0.063884795 -0.77717912 0.73782265
0.063884646 -0.77791691 0.7363531
0.063884676 -0.7777577 0.73639172
0.063884646 -0.77786785 0.73608428
0.063884683 -0.77751929 0.73518217
0.063884541 -0.77698481 0.72471613
0.061815001 -0.7862938 0.86149907
0.061814982 -0.78634351 0.86136484
0.061815135 -0.78568256 0.86124706
0.061815154 -0.78560841 0.86120802
0.061815172 -0.78552359 0.86117256
0.061815221 -0.78531492 0.86121815
0.061815251 -0.78519118 0.86120737
0.061815251 -0.78518426 0.86111546
0.06181531 -0.78494376 0.86118573
0.06181531 -0.78492975 0.86110085
0.061815348 -0.78477418 0.86111474
0.061815448 -0.78437787 0.86129087
0.061815478 -0.78425413 0.86128718
0.061815467 -0.78427911 0.86117053
0.061815515 -0.78408104 0.86121261
0.06181553 -0.78401393 0.86116654
0.061815519 -0.78403533 0.86105341
0.061815552 -0.78390455 0.86104971
0.061815612 -0.7836569 0.86112708
0.061815653 -0.78349423 0.861148
0.061815687 -0.78334928 0.86115134
0.061815739 -0.78312999 0.86120754
0.061815795 -0.78290713 0.86126727
0.061815802 -0.78286839 0.86120003
0.061815832 -0.78273404 0.8611998
0.061815981 -0.78211182 0.86115634
0.061816007 -0.78200227 0.86113852
0.061815992 -0.78203428 0.86102188
0.061815999 -0.78199548 0.86095464
0.061816249 -0.7809664 0.86110497
0.061816335 -0.78062671 0.86126
0.061816365 -0.78049946 0.86125273
0.061816353 -0.78053504 0.86113256
0.061816331 -0.7806024 0.86098772
0.06181648 -0.77997667 0.86096191
0.061816495 -0.77989894 0.86092645
0.061816651 -0.77925533 0.86101025
0.061816711 -0.77902186 0.86108768
0.061816733 -0.77889848 0.86088592
0.061816759 -0.77878886 0.86087513
0.061816789 -0.77865809 0.86087137
0.061816957 -0.77797198 0.86099756
0.06181699 -0.77783406 0.86100084
0.061817002 -0.77777052 0.86095124
0.061817028 -0.77765739 0.86093688
0.061817076 -0.77746993 0.8609826
0.061817117 -0.77729315 0.86101764
0.061817162 -0.77710921 0.86105978
0.061817169 -0.77706689 0.86099607
0.06181721 -0.7768833 0.8608402
0.061817244 -0.77674186 0.86084706
0.061817251 -0.77669954 0.86078328
0.061817199 -0.77689087 0.86054319
0.061817829 -0.77425647 0.86078286
0.061817911 -0.77393806 0.86092377
0.061817944 -0.77378953 0.86093765
0.06181797 -0.77368349 0.86092335
0.061818 -0.77355975 0.86091959
0.061818022 -0.77345723 0.86090171
0.061818033 -0.77341139 0.86084157
0.061818048 -0.77333724 0.8607955
0.061818093 -0.77314621 0.86084467
0.06181813 -0.77299774 0.86085856
0.061818145 -0.77293414 0.86081606
0.061818149 -0.77290601 0.86073822
0.061818145 -0.7729097 0.8606357
0.061818104 -0.77304786 0.86044145
0.061818495 -0.77145618 0.86087018
0.061818533 -0.77131122 0.86088055
0.061818529 -0.77131134 0.86078864
0.061818518 -0.77134341 0.8606649
0.06181851 -0.77135062 0.86056596
0.061818525 -0.7712906 0.86051279
0.061818548 -0.77119166 0.86049145
0.061818577 -0.77106082 0.86049479
0.061818615 -0.77091229 0.86051571
0.061818626 -0.77085227 0.86046261
0.061818633 -0.77081704 0.86039186
0.061818644 -0.77076411 0.86033869
0.061818652 -0.7707147 0.86027497
0.061818659 -0.77068299 0.86020774
0.061818656 -0.77068317 0.86010879
0.061818659 -0.77065498 0.86003798
0.06181867 -0.77059853 0.85998136
0.061818674 -0.77057743 0.85990351
0.061818678 -0.77054572 0.85982925
0.061818685 -0.77051049 0.8597585
0.061818704 -0.7704221 0.85973358
0.061818745 -0.77025592 0.85975802
0.061818779 -0.770118 0.85976845
0.061818812 -0.76997304 0.85978585
0.061818834 -0.76988119 0.85975742
0.061818831 -0.76988488 0.859662
0.061818827 -0.76987791 0.85957003
0.061818849 -0.76978958 0.85953808
0.061818868 -0.76970476 0.85950965
0.061818875 -0.76965892 0.85944945
0.06181889 -0.76958472 0.85941046
0.061818916 -0.76947516 0.85939258
0.061818942 -0.76936203 0.85938537
0.061818961 -0.7692914 0.85934281
0.061818976 -0.76921725 0.85930377
0.061818987 -0.76916784 0.85924715
0.061818976 -0.76919633 0.85912699
0.061818965 -0.76922476 0.85900682
0.061818972 -0.76917893 0.85894662
0.061818995 -0.76907998 0.85892528
0.061819017 -0.76899159 0.85890037
0.061819024 -0.76894224 0.85883665
0.061819032 -0.76889992 0.85877293
0.061819032 -0.76888943 0.85868454
0.061819024 -0.76890731 0.85857499
0.061819036 -0.7688579 0.8585183
0.061819073 -0.76870584 0.85853577
0.061819099 -0.76859623 0.85852492
0.061819091 -0.7686035 0.85842597
0.061819091 -0.76859301 0.85833758
0.061819118 -0.76848698 0.85832322
0.061819132 -0.76841277 0.8582772
0.061819132 -0.76840234 0.85818875
0.061819125 -0.76841313 0.85808623
0.061819125 -0.76840973 0.8579908
0.061819132 -0.76836741 0.85792708
0.061819129 -0.76837111 0.85782456
0.061819114 -0.76841378 0.85769731
0.06181911 -0.76842099 0.85759127
0.061819114 -0.76839286 0.85752052
0.061819114 -0.76837528 0.85743916
0.061819103 -0.76840734 0.85731548
0.061819099 -0.76841098 0.85721296
0.061819106 -0.76837224 0.85714573
0.061819103 -0.76836532 0.85705376
0.061819095 -0.76839024 0.85693717
0.061819091 -0.76838332 0.85684526
0.061819095 -0.76835871 0.85676384
0.061819073 -0.76843321 0.85661197
0.061819065 -0.76844752 0.85649884
0.061819065 -0.76843357 0.85641396
0.061819054 -0.76847619 0.85627967
0.061819039 -0.76851529 0.85615599
0.061819043 -0.76849067 0.85607463
0.061819032 -0.76851207 0.85596156
0.061819017 -0.76855826 0.85583079
0.061818976 -0.7687 0.85561889
0.06181895 -0.7687993 0.85544229
0.061817467 -0.77435488 0.85037792
0.061817374 -0.77468777 0.85002494
0.061817314 -0.77491099 0.84974599
0.061817262 -0.77509874 0.84950233
0.061817188 -0.77536088 0.8491987
0.061817165 -0.77543187 0.84904325
0.061817154 -0.77546746 0.84891599
0.061817113 -0.77560562 0.84870768
0.061817091 -0.7756837 0.84854513
0.061817084 -0.77569801 0.848432
0.061817057 -0.77579021 0.84826249
0.061817002 -0.77594328 0.84763694
0.061815564 -0.77985436 0.8320905
0.061815526 -0.77998555 0.83186799
0.061815556 -0.77964854 0.8303684
0.061814971 -0.77967066 0.81259882
0.0618148 -0.78020674 0.81123143
0.061814792 -0.78022468 0.81109357
0.061814833 -0.78004783 0.81113571
0.061814822 -0.78007281 0.81099081
0.06181474 -0.78034252 0.81036896
0.061814789 -0.78013736 0.81043226
0.061814785 -0.78014463 0.810305
0.061814763 -0.7802121 0.81011772
0.061814733 -0.78030795 0.80990225
0.06181471 -0.78037542 0.80971497
0.06181471 -0.78036147 0.80960178
0.061814722 -0.78030854 0.80952746
0.061814737 -0.78023082 0.80947787
0.061814751 -0.78016025 0.80942118
0.061814759 -0.78011441 0.80933976
0.061814774 -0.78004378 0.80928308
0.061814766 -0.78005463 0.80914521
0.06181474 -0.7801469 0.8089332
0.06181471 -0.78023565 0.80872476
0.06181471 -0.78022522 0.80860806
0.061814744 -0.78007668 0.80862904
0.061814774 -0.77996004 0.80861121
0.061814763 -0.77998501 0.80846626
0.061814737 -0.78005958 0.80826485
0.06181474 -0.78003854 0.80815876
0.06181471 -0.78012729 0.80795032
0.061814677 -0.78023726 0.80772066
0.061814666 -0.78026932 0.80756873
0.061814658 -0.78028017 0.80743086
0.061814658 -0.78026974 0.80731416
0.061814673 -0.78019559 0.80726099
0.061814699 -0.78008246 0.80723959
0.061814692 -0.78009683 0.8071053
0.061814681 -0.78011829 0.80695683
0.06181467 -0.78014332 0.80680484
0.061814662 -0.7801612 0.80665988
0.061814655 -0.78017205 0.80652201
0.061814643 -0.78019702 0.80637711
0.061814651 -0.78015125 0.80628866
0.06181467 -0.78007001 0.80624253
0.06181467 -0.780056 0.8061294
0.061814658 -0.78007746 0.80598092
0.06181467 -0.78002101 0.80591011
0.061814673 -0.77999294 0.80581111
0.061814647 -0.78007102 0.80560619
0.061814629 -0.78013498 0.80542243
0.061814629 -0.78011042 0.80531985
0.061814632 -0.7800858 0.80521727
0.061814621 -0.78010726 0.80506176
0.061814606 -0.78015351 0.80489564
0.061814599 -0.78016436 0.80475777
0.06181458 -0.78021765 0.80457759
0.06181458 -0.7802037 0.8044644
0.061814599 -0.78012252 0.80441123
0.061814595 -0.78010851 0.8042981
0.061814595 -0.78010166 0.80417788
0.061814599 -0.78006643 0.80408585
0.061814595 -0.78006667 0.80395859
0.061814584 -0.78009164 0.8038066
0.061814573 -0.78012019 0.80365109
0.061814558 -0.78016287 0.80348146
0.06181455 -0.78017372 0.80334359
0.061814554 -0.78013855 0.80325162
0.061814554 -0.78012103 0.80313492
0.061814554 -0.78010708 0.80302173
0.061814558 -0.78007895 0.80292267
0.061814561 -0.7800473 0.80282718
0.061814554 -0.78005815 0.80268931
0.061814547 -0.78007251 0.80254084
0.061814532 -0.78011876 0.80236769
0.061814509 -0.78018981 0.8021698
0.061814506 -0.78018647 0.80204606
0.061814517 -0.78013003 0.80196816
0.061814524 -0.78008419 0.8018868
0.061814535 -0.78002065 0.80182302
0.061814535 -0.78001028 0.80169928
0.061814517 -0.78006005 0.80152261
0.061814494 -0.78012401 0.80133176
0.061814483 -0.78015608 0.80116564
0.061814491 -0.78011024 0.80108428
0.061814498 -0.7800715 0.80099583
0.061814487 -0.78009653 0.80084383
0.061814476 -0.78011799 0.80068833
0.06181448 -0.78009695 0.80058217
0.061814476 -0.78008658 0.80045843
0.061814472 -0.78008676 0.80033118
0.061814457 -0.78012592 0.80016506
0.061814446 -0.78014737 0.80000955
0.061814457 -0.78009093 0.79993165
0.06181445 -0.78010178 0.79979378
0.061814431 -0.78015864 0.79961002
0.061814439 -0.7801199 0.79951453
0.061814442 -0.78008473 0.7994225
0.061814431 -0.7801168 0.79925638
0.06181442 -0.78014177 0.79910439
0.061814431 -0.78008533 0.79902655
0.061814431 -0.78006786 0.79891694
0.061814416 -0.7801106 0.79874021
0.061814394 -0.78016394 0.79855293
0.06181439 -0.78017122 0.79841858
0.061814409 -0.78008646 0.79836893
0.061814427 -0.77999812 0.79832989
0.061814416 -0.7800231 0.79817086
0.061814379 -0.78015083 0.79790944
0.06181436 -0.7802006 0.79773271
0.06181436 -0.78019023 0.79760897
0.061814353 -0.78019398 0.79747814
0.061814349 -0.78018707 0.79735088
0.061814357 -0.78014481 0.79725885
0.061814357 -0.78013086 0.79714572
0.061814364 -0.7800886 0.79705369
0.061814375 -0.78003216 0.79697585
0.061814379 -0.77999693 0.79688388
0.061814368 -0.78002197 0.7967248
0.061814357 -0.780047 0.79656577
0.06181436 -0.7800259 0.79645967
0.061814353 -0.78003675 0.79631472
0.061814345 -0.7800476 0.79616976
0.061814342 -0.78004074 0.7960425
0.061814327 -0.78007996 0.79586929
0.061814308 -0.78013682 0.7956785
0.061814301 -0.78015119 0.79553705
0.06181429 -0.78016913 0.79538506
0.061814293 -0.780141 0.79527897
0.061814304 -0.78008103 0.79520464
0.06181429 -0.78012371 0.79502791
0.061814267 -0.78019124 0.79482651
0.061814256 -0.78021628 0.79466742
0.061814249 -0.78022712 0.79452252
0.06181426 -0.78017062 0.79445171
0.061814267 -0.78013194 0.79435617
0.061814267 -0.78011799 0.79423594
0.06181426 -0.78012878 0.79409099
0.061814245 -0.780168 0.79391783
0.061814252 -0.78012216 0.79382938
0.061814267 -0.78004092 0.79377621
0.061814263 -0.78004825 0.79364187
0.061814249 -0.78008741 0.79346865
0.06181423 -0.78013015 0.79328489
0.061814219 -0.7801587 0.79312229
0.061814222 -0.78013057 0.7930162
0.061814219 -0.78013432 0.79287833
0.0618142 -0.78018415 0.79269457
0.061814204 -0.7801525 0.79259199
0.061814226 -0.78004998 0.79255998
0.061814237 -0.77999353 0.79248917
0.061814241 -0.77996898 0.79237956
0.061814234 -0.77997631 0.79223812
0.061814226 -0.77998358 0.79208964
0.061814219 -0.78000152 0.79193765
0.0618142 -0.78004777 0.7917574
0.061814193 -0.78006923 0.7916019
0.061814189 -0.78005528 0.79148167
0.061814196 -0.7800166 0.79137903
0.061814185 -0.78004515 0.79121649
0.061814182 -0.78003472 0.79109269
0.0618142 -0.77994996 0.7910431
0.061814196 -0.77994663 0.79091227
0.061814185 -0.77997518 0.79074967
0.061814185 -0.77995414 0.79063648
0.061814178 -0.77996498 0.79049158
0.06181417 -0.77997589 0.79033953
0.061814174 -0.77995127 0.79022992
0.061814163 -0.77997279 0.79006732
0.061814152 -0.77999777 0.78990823
0.061814141 -0.78002632 0.78974569
0.061814129 -0.78005135 0.78957951
0.061814122 -0.78006572 0.7894311
0.061814114 -0.78006595 0.78928965
0.061814118 -0.7800414 0.78917998
0.061814107 -0.78006285 0.78902447
0.061814103 -0.78006667 0.78887951
0.061814103 -0.78005272 0.78875929
0.0618141 -0.78003877 0.78863198
0.061814114 -0.77997881 0.78855765
0.061814118 -0.77994359 0.78845859
0.061814088 -0.78004301 0.78821832
0.061814059 -0.78012466 0.78799576
0.06181407 -0.78007174 0.78791434
0.061814077 -0.78002238 0.7878294
0.06181407 -0.78003329 0.78767741
0.061814059 -0.78006536 0.7875042
0.061814047 -0.7800833 0.7873522
0.061814044 -0.78008354 0.78721076
0.06181404 -0.78007668 0.78707641
0.061814044 -0.78005213 0.78696674
0.061814047 -0.78002399 0.78686064
0.061814029 -0.78007734 0.78666627
0.061814018 -0.78009176 0.78651077
0.061814032 -0.78002822 0.78643996
0.061814044 -0.77997535 0.78635854
0.061814051 -0.77991891 0.7862736
0.061814047 -0.77992618 0.78613216
0.061814025 -0.7799831 0.78592724
0.06181401 -0.78001875 0.78575051
0.061813999 -0.7800473 0.78558081
0.061814003 -0.78001922 0.78547472
0.061814014 -0.77995569 0.78540391
0.061814021 -0.77991694 0.78530133
0.061814014 -0.7799207 0.7851634
0.061813995 -0.77998471 0.78495139
0.061813965 -0.78007698 0.78471822
0.061813954 -0.7800985 0.78455561
0.061813962 -0.78004915 0.78446358
0.061813988 -0.77993602 0.78444219
0.06181398 -0.77995044 0.78428668
0.061813921 -0.78015256 0.78393698
0.06181385 -0.78040069 0.78352726
0.061813891 -0.78023094 0.7835694
0.061813947 -0.78001159 0.78366095
0.061813988 -0.77983826 0.78370667
0.061813973 -0.77987391 0.78352994
0.061813954 -0.77992725 0.78333557
0.061813932 -0.77999479 0.78312004
0.061813883 -0.78015792 0.7828021
0.061813869 -0.78019714 0.78261477
0.061813887 -0.78010172 0.78258276
0.061813902 -0.78003824 0.78250492
0.061813898 -0.78002781 0.78237408
0.061813869 -0.78011662 0.78213733
0.061813906 -0.7799716 0.7821548
0.061813936 -0.77984083 0.78215104
0.061813947 -0.77978081 0.78207666
0.06181398 -0.77963936 0.7820906
0.061814051 -0.77937043 0.7822386
0.061813902 -0.77990192 0.78151828
0.061813794 -0.78027761 0.78097439
0.06181382 -0.78016448 0.78095299
0.061813843 -0.7800656 0.78091747
0.061813816 -0.78014016 0.78069484
0.061813813 -0.78014749 0.78053933
0.061813913 -0.77975106 0.7808286
0.061813913 -0.77974421 0.78069425
0.061813883 -0.77982587 0.78046453
0.061813876 -0.77983677 0.78030545
0.061813913 -0.77968466 0.78032994
0.061813887 -0.77976638 0.78010029
0.061813824 -0.7799862 0.77971882
0.061813846 -0.77988374 0.77968681
0.06181385 -0.77984858 0.77958071
0.061813843 -0.77986294 0.77942514
0.061813772 -0.78009695 0.77902246
0.061813761 -0.78013259 0.77884579
0.061813831 -0.77984947 0.77900791
0.061813824 -0.7798568 0.77885944
0.061813783 -0.77999872 0.77855563
0.061813794 -0.77993518 0.77848482
0.06181382 -0.77982211 0.77846342
0.061813809 -0.77984357 0.77829373
0.061813794 -0.77987927 0.778117
0.061813641 -0.78040749 0.77724463
0.061813794 -0.77983743 0.77772808
0.061813802 -0.77978808 0.77763605
0.06181372 -0.78007525 0.77718043
0.06181372 -0.78005779 0.7770496
0.061813794 -0.77976757 0.77722591
0.061813813 -0.77968282 0.77717626
0.061813783 -0.77977157 0.77693248
0.061813768 -0.77980369 0.77675217
0.061813854 -0.77948159 0.77696735
0.061813708 -0.77999187 0.776254
0.061813742 -0.779854 0.77626437
0.061813746 -0.77981174 0.77616531
0.061813675 -0.78006345 0.77573794
0.061813593 -0.78033644 0.77528936
0.061813604 -0.78027999 0.77521145
0.061813649 -0.78010315 0.77526069
0.06181372 -0.77982712 0.77542287
0.061813738 -0.77973878 0.7753697
0.061813749 -0.77967882 0.77529532
0.061813802 -0.7794807 0.77536571
0.061813582 -0.78026021 0.77435583
0.06181366 -0.7799558 0.77454627
0.061813656 -0.77994895 0.77440482
0.06181363 -0.78003418 0.77416456
0.061813638 -0.77998483 0.77407962
0.061813649 -0.77993548 0.77398759
0.061813638 -0.77995348 0.77381438
0.06181363 -0.7799679 0.77365178
0.06181363 -0.77994335 0.77353507
0.061813634 -0.77990812 0.77342898
0.061813634 -0.77989423 0.77329457
0.061813638 -0.77986968 0.77317786
0.061813664 -0.77975303 0.77315998
0.06181363 -0.77985245 0.77289855
0.061813641 -0.77979249 0.77282417
0.061813656 -0.77972186 0.77275336
0.061813522 -0.78019673 0.77206826
0.06181353 -0.78015095 0.77197272
0.061813559 -0.78003073 0.77196544
0.061813492 -0.78021216 0.77131164
0.061813548 -0.78000337 0.77139974
0.061813578 -0.7798655 0.77141011
0.061813582 -0.77983737 0.77129692
0.061813481 -0.78018832 0.77074945
0.061813496 -0.78011066 0.77068573
0.061813496 -0.78009671 0.77055132
0.061813369 -0.78052932 0.76976717
0.061813399 -0.78040206 0.76975989
0.061813422 -0.7802996 0.76972789
0.061813448 -0.78018647 0.76970649
0.061813463 -0.78010881 0.76964271
0.06181372 -0.77913874 0.77044725
0.061813582 -0.77961034 0.76961714
0.061813589 -0.77956808 0.76951104
0.061813552 -0.77967811 0.76923895
0.061813544 -0.77969611 0.76907283
0.061813582 -0.77953696 0.76909733
0.061813623 -0.77937073 0.76913595
0.061813518 -0.77970773 0.76845413
0.061813526 -0.77966899 0.76835155
0.061813518 -0.7796728 0.76819241
0.061813563 -0.77949238 0.76825225
0.061813358 -0.78020841 0.76713622
0.061813425 -0.77994651 0.76728427
0.061813388 -0.78001481 0.76660198
0.061813395 -0.77996194 0.76651353
0.06181331 -0.78022832 0.76575381
0.061813325 -0.78015417 0.76568651
0.06181334 -0.78008002 0.76561922
0.061813366 -0.77996695 0.76559782
0.061813433 -0.77970511 0.76574588
0.061813496 -0.77946091 0.76587629
0.061813496 -0.77944344 0.76574546
0.061813209 -0.78040439 0.7640323
0.061813291 -0.78000563 0.76358265
0.06181331 -0.77991021 0.76353651
0.061813321 -0.77986443 0.76344097
0.061813459 -0.77931589 0.76376891
0.061813321 -0.77977008 0.76277971
0.061813422 -0.77937025 0.76294518
0.061813422 -0.77935278 0.76281434
0.061813414 -0.77936012 0.76265174
0.061813429 -0.77927893 0.76259148
0.061813291 -0.77970499 0.76148206
0.06181322 -0.77994615 0.76104403
0.061813205 -0.77998179 0.76084608
0.061813232 -0.77986872 0.76082468
0.061813392 -0.77927387 0.76136822
0.061813112 -0.78025204 0.75991315
0.061813138 -0.78014249 0.75988823
0.061813179 -0.77997273 0.75993037
0.061813228 -0.77977812 0.76000428
0.061813269 -0.77961189 0.76005
0.061813314 -0.77937204 0.75971019
0.061813395 -0.77905703 0.75992537
0.061813146 -0.77993935 0.75872827
0.061813187 -0.77977663 0.75876331
0.061813217 -0.77965289 0.75875956
0.061813254 -0.77949375 0.75879115
0.061813276 -0.77939838 0.75874501
0.061813179 -0.77972806 0.75819755
0.061813209 -0.77960789 0.75819027
0.061813254 -0.77942747 0.75824302
0.061813224 -0.77947074 0.75772691
0.061813246 -0.77937889 0.75767726
0.061813273 -0.77926582 0.75765586
0.061813083 -0.77986223 0.75617194
0.061813001 -0.78004444 0.75501609
0.061813019 -0.77992827 0.75468004
0.061813045 -0.77976966 0.7543934
0.061813056 -0.77971327 0.75430137
0.061813023 -0.77979171 0.75389844
0.061813034 -0.77973878 0.7538029
0.061813019 -0.77976739 0.75361204
0.061812993 -0.77977931 0.75280946
0.061813012 -0.77968746 0.75275981
0.061813053 -0.7795248 0.75279492
0.061813097 -0.77934086 0.75285828
0.061812874 -0.78013462 0.7517494
0.061813217 -0.77887374 0.75310498
0.061813213 -0.77886337 0.75295293
0.061812956 -0.77977765 0.75169581
0.061812975 -0.77968931 0.75164968
0.061813012 -0.77953726 0.75167418
0.061813053 -0.77937102 0.7517128
0.061813124 -0.77909493 0.75188911
0.061813127 -0.7790423 0.751638
0.061813109 -0.77905732 0.751136
0.061812934 -0.77967042 0.75023544
0.061812956 -0.77956796 0.75020343
0.061813034 -0.77927417 0.75039744
0.061813168 -0.77876073 0.75086677
0.061813254 -0.77840728 0.7508167
0.061812967 -0.77942425 0.74942183
0.061813053 -0.77909154 0.74966174
0.061812926 -0.77937376 0.74787676
0.061812934 -0.77932799 0.74777412
0.061812971 -0.77917588 0.74779862
0.061812852 -0.77954513 0.74686587
0.0618129 -0.77936119 0.74692923
0.061812948 -0.77916306 0.74700665
0.061812978 -0.77903223 0.7470029
0.061813004 -0.77892625 0.74697447
0.061812993 -0.77888834 0.74637687
0.061812993 -0.77887088 0.74623191
0.061812837 -0.77939928 0.74526048
0.061812986 -0.77883977 0.74578989
0.061812785 -0.77921313 0.7423681
0.061812833 -0.77902204 0.74244559
0.061812937 -0.77858359 0.74250144
0.061812859 -0.77882499 0.74186546
0.061812736 -0.77904439 0.73959953
0.061812662 -0.77889782 0.73626524
0.061812665 -0.77859706 0.73428488
0.061812609 -0.77878863 0.733868
0.061812572 -0.77861571 0.73152012
0.061812576 -0.77857703 0.73140335
0.061812595 -0.77849227 0.73133957
0.061812606 -0.77831 0.73037761
0.061812479 -0.77865183 0.72888619
0.061812498 -0.77855998 0.72883654
0.061812658 -0.77790213 0.72901928
0.061812695 -0.77775359 0.72904736
0.06181258 -0.77813327 0.72819591
0.061812617 -0.77797055 0.72824514
0.061812557 -0.77772903 0.72458899
0.059959374 -0.78797388 0.86154586
0.059959378 -0.78788197 0.86151034
0.059959382 -0.78781843 0.86146075
0.059959389 -0.78766286 0.8614676
0.059959408 -0.78728491 0.86125129
0.059959419 -0.78709042 0.86128986
0.059959423 -0.78699499 0.86125791
0.059959427 -0.78687477 0.86124361
0.059959438 -0.78672272 0.86125398
0.05995949 -0.78570414 0.86147863
0.05995949 -0.78569722 0.86138666
0.059959479 -0.78585309 0.86118186
0.059959479 -0.78583205 0.86110407
0.059959486 -0.78571892 0.86108971
0.059959497 -0.78550315 0.8611424
0.059959505 -0.78534406 0.86115277
0.059959508 -0.78524172 0.86103594
0.05995952 -0.78504366 0.86107802
0.059959546 -0.78456616 0.86121517
0.059959549 -0.78448135 0.86117965
0.059959576 -0.78398627 0.86123544
0.059959587 -0.78371066 0.86114311
0.059959594 -0.78359061 0.86103684
0.059959605 -0.78335714 0.86110008
0.059959613 -0.7832405 0.86108929
0.05995962 -0.78311324 0.86108202
0.05995962 -0.78308511 0.86100417
0.059959631 -0.78287995 0.86105335
0.059959635 -0.78276682 0.86103904
0.059959639 -0.78268909 0.86099648
0.059959672 -0.782116 0.86120772
0.059959672 -0.78205955 0.86115104
0.059959676 -0.78196061 0.86112261
0.059959732 -0.78092104 0.86119163
0.059959736 -0.78085041 0.86114913
0.05995981 -0.77932692 0.86091691
0.059959818 -0.77916783 0.86093432
0.059959825 -0.77904761 0.86092705
0.059959829 -0.77894866 0.86090571
0.059959829 -0.77891695 0.86083138
0.059959847 -0.77855283 0.86081314
0.059959915 -0.77731484 0.86115056
0.059959915 -0.77730435 0.86106217
0.059959911 -0.77733284 0.86094201
0.059959903 -0.77747107 0.86074072
0.059960064 -0.77430665 0.86079574
0.059960078 -0.77406257 0.86088377
0.059960086 -0.77392113 0.86089766
0.05996009 -0.77385408 0.86084449
0.059960097 -0.77371967 0.86085141
0.059960101 -0.77362424 0.86082649
0.059960108 -0.77346158 0.86085451
0.059960119 -0.77328473 0.86088955
0.059960123 -0.77318579 0.86086822
0.059960127 -0.77312577 0.86081505
0.059960131 -0.77300912 0.86081135
0.059960131 -0.77297384 0.8607406
0.059960134 -0.7729103 0.86069101
0.059960149 -0.77266622 0.86077899
0.05996016 -0.77241504 0.86086696
0.059960172 -0.77222788 0.86072171
0.059960209 -0.77151686 0.86097163
0.059960209 -0.77152056 0.86087614
0.059960209 -0.77151006 0.86078775
0.059960209 -0.77148193 0.86070991
0.059960209 -0.77142543 0.86065328
0.059960213 -0.77138662 0.86059308
0.059960209 -0.77141154 0.86047649
0.059960209 -0.77140111 0.86038804
0.059960216 -0.77125615 0.86039841
0.059960227 -0.77108639 0.86043352
0.059960227 -0.77102989 0.86037683
0.059960224 -0.77106899 0.86025321
0.059960227 -0.7710337 0.8601824
0.059960231 -0.77095956 0.86014342
0.059960231 -0.77092433 0.86007261
0.059960231 -0.77087843 0.86001247
0.059960235 -0.77081841 0.8599664
0.059960239 -0.77076548 0.8599062
0.059960242 -0.77066296 0.85988837
0.05996025 -0.77051449 0.85990226
0.059960257 -0.77036589 0.85992324
0.059960261 -0.77030593 0.85987014
0.059960261 -0.77026713 0.8598029
0.059960265 -0.77021772 0.85974622
0.059960265 -0.77015769 0.85969311
0.059960268 -0.77010477 0.85964
0.059960265 -0.77011907 0.85953397
0.059960272 -0.77000946 0.85952318
0.059960276 -0.76994592 0.85947359
0.059960276 -0.76992482 0.85938871
0.059960276 -0.76988959 0.85932499
0.059960283 -0.76975876 0.85932833
0.059960291 -0.76958549 0.85935986
0.059960295 -0.76949716 0.85933495
0.059960298 -0.76947254 0.85925359
0.059960298 -0.76943016 0.85918993
0.059960298 -0.76938081 0.85913324
0.059960298 -0.76936322 0.85905188
0.059960302 -0.7693103 0.85899174
0.059960306 -0.76922899 0.85895979
0.059960309 -0.76918668 0.85889608
0.059960306 -0.76917976 0.85880411
0.059960306 -0.76916224 0.85872281
0.059960309 -0.76909512 0.85867673
0.059960313 -0.76900321 0.8586483
0.059960317 -0.76895028 0.85859519
0.059960313 -0.76896465 0.8584891
0.059960313 -0.76895767 0.85839719
0.059960317 -0.76889056 0.85835111
0.059960321 -0.7688058 0.85831565
0.059960321 -0.76877761 0.8582449
0.059960324 -0.76874238 0.85817409
0.059960324 -0.76869649 0.85811394
0.059960324 -0.76868957 0.85802203
0.059960324 -0.76867914 0.85793358
0.059960324 -0.76863676 0.85786986
0.059960328 -0.76858032 0.85781324
0.059960328 -0.768538 0.85774952
0.059960328 -0.76857001 0.85762584
0.059960321 -0.76866573 0.85745275
0.059960321 -0.76865882 0.85736787
0.059960321 -0.76859528 0.85731828
0.059960321 -0.7685954 0.85721928
0.059960313 -0.76870883 0.85703564
0.059960313 -0.768709 0.85693663
0.059960321 -0.76857108 0.856947
0.059960321 -0.76853585 0.85687625
0.059960309 -0.76871651 0.85663962
0.059960302 -0.76884764 0.85643834
0.059960306 -0.7687735 0.85639936
