# .PCD v0.7 - Point Cloud Data file format
VERSION 0.7
FIELDS x y z
SIZE 4 4 4
TYPE F F F
COUNT 1 1 1
WIDTH 1380
HEIGHT 1
VIEWPOINT 0 0 0 1 0 0 0
POINTS 1380
DATA ascii
0.073880129 -0.77693343 0.78042597
0.073880099 -0.77699035 0.78022099
0.073880024 -0.77719605 0.77985364
0.073880002 -0.77719986 0.77970165
0.073880009 -0.7771399 0.77962732
0.073880032 -0.77700549 0.77963412
0.073880024 -0.77698451 0.7795139
0.073879987 -0.77704144 0.77930188
0.07387995 -0.77713025 0.77906513
0.073879905 -0.77722973 0.77881074
0.07387989 -0.77722287 0.77867639
0.073879875 -0.7772302 0.77852082
0.073879883 -0.77714193 0.77847469
0.073879883 -0.77708548 0.77839684
0.073879853 -0.7771247 0.77820951
0.073879853 -0.77708596 0.77810693
0.073879845 -0.77704018 0.77801138
0.073879838 -0.77702981 0.77788055
0.07387986 -0.77689189 0.77789092
0.073879816 -0.77700198 0.77761889
0.073879719 -0.77727503 0.77717036
0.073879734 -0.7771619 0.777156
0.073879763 -0.77700275 0.77718049
0.073879734 -0.77705616 0.77697903
0.073879667 -0.77724767 0.77661872
0.073879682 -0.77712393 0.77661496
0.073879793 -0.77668846 0.77695715
0.073879778 -0.77668518 0.7768122
0.073879704 -0.77689445 0.7764343
0.073879667 -0.77696908 0.77620459
0.073879637 -0.77702248 0.77600318
0.0738796 -0.77708298 0.77578759
0.073879577 -0.77711511 0.77560735
0.073879592 -0.77700555 0.77558243
0.073879562 -0.77704477 0.7753951
0.073879465 -0.77732486 0.77493244
0.073879384 -0.7775625 0.77451921
0.073879413 -0.77739626 0.77455777
0.073879465 -0.77718037 0.77465993
0.073879503 -0.77699292 0.77471972
0.073879488 -0.77697188 0.77459949
0.073879458 -0.77703238 0.7743839
0.073879443 -0.77701491 0.7742601
0.073879436 -0.77699393 0.77413279
0.073879436 -0.77693397 0.77405846
0.073879421 -0.77692711 0.77391702
0.073879398 -0.77695221 0.77374381
0.073879354 -0.7770552 0.77347887
0.073879346 -0.77702355 0.77336919
0.073879376 -0.77687502 0.77339011
0.073879369 -0.77684695 0.77327698
0.073879354 -0.77683657 0.77313906
0.073879324 -0.77688646 0.77293408
0.073879264 -0.77702838 0.77262318
0.073879302 -0.77686214 0.7726689
0.073879324 -0.77671009 0.77269334
0.073879331 -0.77662885 0.77264017
0.073879279 -0.77676725 0.77233285
0.073879264 -0.77675337 0.77219844
0.073879242 -0.77678907 0.77201468
0.073879167 -0.77698064 0.77164727
0.073879145 -0.77700216 0.77147764
0.073879153 -0.77692091 0.77141738
0.073879205 -0.77668738 0.77153718
0.073879302 -0.77629083 0.77184057
0.073878966 -0.77739638 0.77042824
0.073879048 -0.77706009 0.77066457
0.073879078 -0.77689034 0.77070671
0.073879115 -0.7767241 0.77075237
0.073879018 -0.77699006 0.77029675
0.073879011 -0.77696198 0.77018356
0.073879011 -0.77691972 0.7700845
0.073879004 -0.77687395 0.76998186
0.073878936 -0.77704775 0.76963216
0.073878936 -0.77700555 0.7695331
0.073878951 -0.776896 0.76950812
0.073878929 -0.77691746 0.76933849
0.073878929 -0.77686107 0.76924646
0.073878936 -0.77676922 0.7692039
0.073878922 -0.77675885 0.76906598
0.073878922 -0.77670598 0.76898456
0.073878922 -0.77666372 0.7688784
0.073878869 -0.77679151 0.76858163
0.073878847 -0.77679884 0.76842612
0.073878884 -0.77662557 0.76847178
0.073878869 -0.7766152 0.76834095
0.073878832 -0.77668273 0.76811123
0.073878855 -0.77655548 0.76810396
0.073878922 -0.7762723 0.7682873
0.073878899 -0.77630091 0.76810348
0.073878847 -0.77642161 0.7678138
0.073878758 -0.77665216 0.76739347
0.07387878 -0.77653557 0.76737559
0.07387878 -0.77646142 0.76730829
0.073878668 -0.77679467 0.7667715
0.073878691 -0.77667093 0.76676774
0.073878735 -0.7764622 0.76685572
0.073878698 -0.77651918 0.76663667
0.073878534 -0.77704728 0.76587033
0.073878527 -0.77688867 0.76560491
0.073878609 -0.77654886 0.7658447
0.073878579 -0.77660227 0.76562917
0.073878534 -0.7766875 0.76538181
0.073878646 -0.77621335 0.76563555
0.073878691 -0.77599746 0.76573771
0.073878646 -0.77609342 0.76547271
0.073878609 -0.77616453 0.76523948
0.073878467 -0.77659702 0.76457554
0.07387843 -0.77666461 0.76434588
0.073878482 -0.77643102 0.76446569
0.073878534 -0.77618682 0.76460314
0.073878519 -0.77617645 0.76446521
0.073878556 -0.7760067 0.76450735
0.073878281 -0.77688557 0.76332802
0.073878258 -0.77689648 0.7631548
0.073878281 -0.77678335 0.76314044
0.073878333 -0.77652854 0.7632885
0.073878437 -0.77612138 0.76361656
0.073878445 -0.7760402 0.76355636
0.073878393 -0.77617508 0.76324546
0.073878273 -0.776519 0.76268393
0.073878288 -0.77641654 0.76265192
0.073878206 -0.77661872 0.76225984
0.073878184 -0.77665442 0.76206893
0.073878311 -0.77617288 0.76247823
0.073878355 -0.77594995 0.76259452
0.073878303 -0.77608484 0.76227653
0.073878191 -0.77640396 0.76174676
0.073878124 -0.77656722 0.76140058
0.073878057 -0.77673399 0.76104379
0.073878065 -0.77665991 0.76098353
0.073878057 -0.77663887 0.76084918
0.073878042 -0.77662498 0.76071477
0.073878169 -0.77606928 0.76106381
0.073878117 -0.77618647 0.76077056
0.073878087 -0.77623636 0.76055855
0.073878072 -0.77622956 0.76041001
0.073877923 -0.77661628 0.7596435
0.073877931 -0.77654213 0.7595762
0.073877923 -0.77651054 0.7594595
0.073877864 -0.77665961 0.75912738
0.073877826 -0.77672362 0.75889415
0.073877797 -0.77677 0.75867856
0.073877804 -0.77652305 0.75835288
0.073877871 -0.77600712 0.75819641
0.073877856 -0.77598262 0.75806552
0.073877804 -0.7761175 0.75774759
0.073877782 -0.77612841 0.75758141
0.073877901 -0.77567166 0.75797307
0.073877856 -0.77577823 0.75769043
0.073877797 -0.77592021 0.75736541
0.073877722 -0.77610117 0.75698739
0.073877677 -0.77620775 0.75670475
0.073877871 -0.77549231 0.75741768
0.073877804 -0.77565205 0.75706089
0.073877662 -0.77602816 0.75629789
0.073877625 -0.77607805 0.75607872
0.07387764 -0.7759791 0.7560432
0.07387767 -0.77575642 0.75599688
0.0738777 -0.77560437 0.75602841
0.073877625 -0.77569377 0.75544518
0.07387761 -0.7756905 0.75529319
0.073877558 -0.77580416 0.75499636
0.073877469 -0.7760489 0.75454074
0.073877551 -0.77570194 0.75480884
0.073877595 -0.77551091 0.75488627
0.073877342 -0.77624488 0.75366777
0.073877327 -0.7762416 0.75351578
0.073877364 -0.77605408 0.75358969
0.073877364 -0.77599412 0.75350118
0.073877335 -0.77604401 0.75328207
0.073877297 -0.7760939 0.75306296
0.073877275 -0.77611899 0.75287563
0.073877193 -0.77627897 0.75236326
0.0738772 -0.77620488 0.75229591
0.07387723 -0.77603859 0.75234163
0.073877245 -0.77593613 0.75230253
0.073877208 -0.77594024 0.75198787
0.073877119 -0.77612859 0.75143313
0.073877104 -0.77605826 0.75120676
0.073877141 -0.77588493 0.75125945
0.073877171 -0.77554238 0.7510432
0.073877141 -0.77558517 0.75083113
0.073877163 -0.77545434 0.75082737
0.073877275 -0.7750259 0.75119787
0.07387697 -0.77597928 0.7498666
0.073876955 -0.77597249 0.74971813
0.073876873 -0.7762031 0.74926949
0.07387685 -0.77619982 0.74911749
0.07387694 -0.77557081 0.74893254
0.073876917 -0.77558529 0.74874872
0.073876902 -0.77556783 0.74861079
0.073876895 -0.77554333 0.74847996
0.073876888 -0.77550817 0.74835968
0.07387685 -0.77555805 0.74814051
0.073876895 -0.77536345 0.74822152
0.073876932 -0.77519011 0.74827427
0.07387688 -0.77529669 0.74798453
0.073876828 -0.77540326 0.74768776
0.07387691 -0.77496475 0.74775058
0.073876865 -0.77492666 0.74731565
0.073876664 -0.77538133 0.74610025
0.073876634 -0.77542412 0.74588817
0.073876604 -0.77544564 0.74569726
0.073876783 -0.77469176 0.74615914
0.073876522 -0.77549994 0.74498677
0.073876537 -0.7753762 0.74498302
0.073876411 -0.7754488 0.74391538
0.073876403 -0.77542424 0.74378455
0.07387647 -0.77438295 0.74283165
0.073876426 -0.77447891 0.74254543
0.07387609 -0.77524245 0.74059165
0.07387609 -0.77516478 0.74052787
0.073876068 -0.77478445 0.73969281
0.073875904 -0.77507973 0.73864323
0.073875815 -0.77452749 0.73701948
0.073875867 -0.77430451 0.73714989
0.073875949 -0.77397877 0.73741096
0.073875733 -0.7743172 0.73594433
0.073875792 -0.77394599 0.73593307
0.073875532 -0.77474719 0.73468995
0.073875561 -0.77457744 0.73474622
0.073874302 -0.77291578 0.72057641
0.073873758 -0.77237439 0.71475595
0.071853869 -0.78677374 0.86132848
0.071853876 -0.7867102 0.86127883
0.071853913 -0.78657234 0.86127508
0.071854003 -0.7861762 0.86135918
0.07185404 -0.78600645 0.8613801
0.071854062 -0.78590399 0.86135513
0.071854271 -0.78498125 0.86132163
0.071854286 -0.7849071 0.86128259
0.07185448 -0.78406209 0.86129165
0.071854517 -0.78389585 0.86131608
0.071854547 -0.7837792 0.8612982
0.071854554 -0.78373337 0.861238
0.071854576 -0.78361672 0.86122012
0.071854621 -0.78343284 0.86125511
0.071854696 -0.78312504 0.86137122
0.07185474 -0.78293401 0.8614133
0.071854763 -0.78282797 0.8613919
0.071854793 -0.78269362 0.86139166
0.07185483 -0.78253454 0.86140192
0.071854822 -0.78255945 0.86129242
0.071854807 -0.78259861 0.86116874
0.071854845 -0.78243589 0.86118966
0.071854874 -0.78230512 0.86118585
0.071854904 -0.78217429 0.86118209
0.071854912 -0.78213203 0.86111128
0.071854919 -0.78210384 0.86104053
0.071855068 -0.78146011 0.861202
0.071854979 -0.78182489 0.8608526
0.071855329 -0.78030068 0.86107963
0.071855359 -0.78017694 0.86107588
0.071855374 -0.7800886 0.86104387
0.071855403 -0.77994043 0.86085975
0.071855426 -0.77985919 0.86082071
0.071855634 -0.77895337 0.86120087
0.071855687 -0.77873051 0.86126763
0.071855649 -0.7788794 0.86106282
0.071855687 -0.77871674 0.86109084
0.071855746 -0.77845842 0.86118585
0.071855776 -0.77833116 0.86117852
0.071855798 -0.7782535 0.86114299
0.07185588 -0.77790314 0.86130148
0.071855925 -0.7777192 0.86134356
0.071855925 -0.77770168 0.8612622
0.07185591 -0.77775854 0.86112088
0.071855918 -0.77769142 0.86107481
0.071855947 -0.77757478 0.86106396
0.071856007 -0.77730274 0.86097509
0.071856037 -0.77716833 0.86098194
0.071856149 -0.77670491 0.8611331
0.07185661 -0.77463716 0.86084998
0.071856752 -0.77404273 0.86110342
0.071856804 -0.77380586 0.8610853
0.071856819 -0.77373523 0.86104274
0.071856827 -0.7736823 0.86098963
0.071856871 -0.77349484 0.86103523
0.071856894 -0.77340299 0.8610068
0.071856909 -0.77333236 0.86096424
0.071856931 -0.77322626 0.86094284
0.071856961 -0.77308482 0.86095667
0.071856998 -0.77292925 0.86097759
0.07185702 -0.77283382 0.86095268
0.071857035 -0.77274907 0.86091715
0.071857072 -0.77259344 0.86093807
0.07185708 -0.7725724 0.86086029
0.071857102 -0.77244866 0.86085653
0.071857162 -0.7722187 0.86093742
0.071857192 -0.77207017 0.8609513
0.071857207 -0.77200663 0.86090165
0.071857303 -0.77161735 0.86109895
0.071857341 -0.77144068 0.86104202
0.071857363 -0.77133465 0.86102772
0.071857378 -0.77125341 0.86098868
0.071857423 -0.77105886 0.86104131
0.071857437 -0.77099174 0.86099523
0.071857467 -0.77087152 0.86099505
0.071857519 -0.77065927 0.86105829
0.071857542 -0.77055323 0.86104393
0.071857542 -0.77052158 0.8609696
0.071857601 -0.77029163 0.86105049
0.071857654 -0.77005458 0.86113143
0.071857654 -0.77006537 0.86102891
0.071857654 -0.77005494 0.86094046
0.071857676 -0.7699489 0.86092615
0.071857706 -0.76980036 0.86094004
0.071857713 -0.76976514 0.86087632
0.071857706 -0.76979005 0.86075968
0.071857698 -0.7698009 0.86065006
0.071857706 -0.76975507 0.86058992
0.071857743 -0.76960653 0.86061084
0.07185778 -0.76944739 0.86063528
0.071857788 -0.76939797 0.86057866
0.071857788 -0.76938754 0.8604902
0.071857795 -0.76934171 0.86043006
0.071857817 -0.76924628 0.86040509
0.07185784 -0.76915443 0.86037666
0.07185784 -0.76914752 0.86028475
0.07185784 -0.7691406 0.86019987
0.071857855 -0.76905227 0.86016786
0.071857892 -0.76891083 0.86018175
0.071857914 -0.76880831 0.86016387
0.071857922 -0.76876599 0.86010021
0.071857922 -0.76874137 0.86001885
0.071857937 -0.76868141 0.85997272
0.071857952 -0.76861078 0.85993016
0.071857959 -0.76856846 0.8598665
0.071857966 -0.76853323 0.85979569
0.071857974 -0.76848382 0.85973901
0.071857989 -0.76840967 0.85970002
0.071857996 -0.76838857 0.85962218
0.071857989 -0.76838166 0.85953027
0.071858011 -0.7682898 0.85950178
0.071858034 -0.76818728 0.85948396
0.071858048 -0.76811314 0.85944492
0.071858071 -0.76803541 0.85940939
0.071858101 -0.76790106 0.85941625
0.071858123 -0.76778084 0.85941601
0.071858115 -0.76780933 0.85929585
0.071858101 -0.76786971 0.85915101
0.071858108 -0.76783097 0.85908377
0.07185813 -0.76771784 0.8590765
0.071858168 -0.76756221 0.85909742
0.071858183 -0.76748097 0.85906541
0.071858175 -0.76750952 0.85894525
0.071858183 -0.76747423 0.85888159
0.071858205 -0.76737529 0.85886019
0.07185822 -0.76729757 0.85882467
0.071858235 -0.76722693 0.85878211
0.07185825 -0.76715982 0.85873604
0.07185825 -0.76713169 0.85866529
0.07185825 -0.76712477 0.85857332
0.071858257 -0.76709312 0.85849899
0.071858272 -0.76702601 0.85845298
0.071858272 -0.76700848 0.85837162
0.071858272 -0.76700515 0.85827613
0.071858294 -0.76690972 0.85825825
0.071858317 -0.76681429 0.85823333
0.071858302 -0.76683575 0.85812026
0.071858302 -0.76683593 0.85802126
0.071858309 -0.76680422 0.85794693
0.071858294 -0.76684332 0.85782325
0.071858287 -0.76687896 0.85769606
0.071858279 -0.76687557 0.85760057
0.071858279 -0.76688993 0.85749453
0.071858272 -0.76689714 0.8573885
0.071858272 -0.7668761 0.85731065
0.071858279 -0.76684445 0.85723639
0.071858257 -0.76692247 0.85708094
0.07185822 -0.76705724 0.85687613
0.071858227 -0.76703262 0.85679477
0.071858235 -0.76697612 0.85674518
0.071858235 -0.76696217 0.85665321
0.07185822 -0.76701194 0.85651898
0.071858212 -0.76703686 0.85640234
0.07185822 -0.76701581 0.85632455
0.071858212 -0.76702309 0.85621846
0.071858197 -0.76706576 0.85608423
0.07185819 -0.76709074 0.85596758
0.071858145 -0.76727504 0.85572749
0.071858123 -0.76732832 0.85558265
0.071856663 -0.77315766 0.85026181
0.07185667 -0.77311182 0.85020161
0.071856618 -0.77331024 0.84994745
0.071856543 -0.77360076 0.84962273
0.071856521 -0.77368593 0.84945315
0.071856476 -0.77384543 0.84923071
0.071856432 -0.77400494 0.84900117
0.071856417 -0.77406889 0.84885281
0.071856402 -0.77411157 0.84871852
0.071856275 -0.77455878 0.84776479
0.071855098 -0.77804673 0.8333568
0.071855105 -0.77800089 0.83328247
0.071854517 -0.77874023 0.81773812
0.071854554 -0.77859527 0.81774843
0.071854554 -0.7785778 0.81764585
0.071854576 -0.77847528 0.81762093
0.071854569 -0.77844477 0.81693143
0.071854547 -0.77845627 0.81644005
0.071854539 -0.77847421 0.81630218
0.071854517 -0.77855945 0.81610435
0.071854532 -0.77849239 0.81604409
0.071854502 -0.77859175 0.81583214
0.071854502 -0.7785778 0.81572604
0.071854517 -0.77851075 0.81566584
0.071854509 -0.7785145 0.8155421
0.071854509 -0.77850056 0.81543601
0.071854532 -0.77842289 0.81538635
0.071854524 -0.77843726 0.81525207
0.071854524 -0.77841622 0.815153
0.071854547 -0.77831727 0.81512457
0.071854524 -0.7783919 0.8149302
0.071854502 -0.77846646 0.81474298
0.071854487 -0.77850211 0.81458747
0.071854457 -0.77862275 0.81435436
0.071854465 -0.77857691 0.81428003
0.071854517 -0.77836466 0.81435037
0.071854502 -0.77840739 0.81418777
0.071854465 -0.77853513 0.81394762
0.07185448 -0.7784645 0.81389797
0.071854495 -0.77839744 0.81383777
0.07185448 -0.77844369 0.81367165
0.071854465 -0.77849352 0.81350207
0.071854457 -0.77850789 0.81336772
0.071854457 -0.77849752 0.81325811
0.071854457 -0.77848709 0.81314141
0.071854457 -0.77847314 0.81303531
0.07185448 -0.77836716 0.81300682
0.071854472 -0.77837801 0.81287605
0.07185445 -0.77846324 0.81267822
0.07185445 -0.77843869 0.81257564
0.071854465 -0.77835745 0.81252956
0.071854472 -0.77831519 0.81244463
0.071854457 -0.77836144 0.81227851
0.071854442 -0.77840769 0.81211245
0.071854442 -0.77841854 0.81198162
0.071854435 -0.77843297 0.81184733
0.071854427 -0.77844381 0.81170946
0.071854413 -0.77849358 0.81153983
0.071854405 -0.77850091 0.81141257
0.07185442 -0.77842677 0.81135941
0.07185442 -0.77842349 0.81123567
0.071854405 -0.77846265 0.81107664
0.071854398 -0.77846998 0.81094933
0.071854413 -0.77839935 0.81089264
0.071854413 -0.7783854 0.81077951
0.071854413 -0.77838564 0.81065929
0.07185442 -0.77833629 0.81058145
0.07185442 -0.77833652 0.81045413
0.071854405 -0.77837569 0.8102951
0.071854383 -0.77843261 0.81011844
0.071854383 -0.77843636 0.8099876
0.071854398 -0.77836931 0.8099274
0.071854405 -0.77831286 0.80985659
0.071854413 -0.77828473 0.80976462
0.071854405 -0.77829915 0.80962324
0.071854383 -0.77836668 0.80943596
0.071854375 -0.77836692 0.80930865
0.071854383 -0.77833527 0.80921316
0.071854375 -0.77834612 0.80908239
0.071854368 -0.77837825 0.8089233
0.07185436 -0.7783891 0.80878544
0.071854353 -0.77838933 0.80866522
0.071854346 -0.77840728 0.80852032
0.071854353 -0.77838624 0.80841422
0.071854353 -0.77837229 0.80830812
0.071854331 -0.77842921 0.80812436
0.071854323 -0.77845776 0.80796885
0.071854331 -0.7783978 0.80790156
0.071854346 -0.77833426 0.80783784
0.071854338 -0.77836287 0.80768937
0.071854331 -0.77838081 0.80754447
0.071854331 -0.77836686 0.80743128
0.071854331 -0.77834582 0.80732518
0.071854331 -0.77833897 0.80720496
0.071854323 -0.7783463 0.80707771
0.071854323 -0.77832884 0.806961
0.071854323 -0.77831841 0.80685139
0.071854331 -0.77828324 0.80675942
0.071854338 -0.77824807 0.80666739
0.071854323 -0.77826953 0.80651897
0.071854308 -0.77831584 0.80634582
0.071854301 -0.77833378 0.80620086
0.071854301 -0.77831984 0.80608773
0.071854301 -0.77831298 0.80596751
0.071854293 -0.77832383 0.80582964
0.071854293 -0.77831346 0.80571294
0.071854301 -0.77828181 0.80561739
0.071854301 -0.77827144 0.80550075
0.071854293 -0.7782681 0.80537695
0.071854301 -0.77824354 0.80527437
0.071854301 -0.77822256 0.80516827
0.071854301 -0.778198 0.80506569
0.071854308 -0.77815926 0.80497724
0.071854301 -0.77817363 0.80483586
0.071854278 -0.77825534 0.80462742
0.071854271 -0.77825916 0.80449659
0.071854286 -0.77820623 0.80442226
0.071854286 -0.77819586 0.80430555
0.071854271 -0.77821732 0.80415714
0.071854278 -0.77819633 0.80405104
0.071854278 -0.77817178 0.80394137
0.071854271 -0.77819681 0.80378938
0.071854256 -0.77823597 0.80362326
0.071854249 -0.77826101 0.80347133
0.071854241 -0.77825421 0.8033511
0.071854234 -0.77827567 0.80320263
0.071854226 -0.77829009 0.80306125
0.071854226 -0.77828676 0.80293751
0.071854226 -0.7782799 0.80281019
0.071854234 -0.77824122 0.80272174
0.071854234 -0.77820247 0.80263329
0.071854234 -0.77821332 0.80249542
0.071854219 -0.77823484 0.80233985
0.071854211 -0.77824926 0.80219847
0.071854204 -0.778292 0.80202883
0.071854196 -0.77830637 0.80188745
0.071854196 -0.77828538 0.80177426
0.071854196 -0.77826792 0.80166465
0.071854182 -0.77831775 0.80148798
0.071854167 -0.77836049 0.80131835
0.071854182 -0.77829343 0.80125105
0.071854196 -0.77821571 0.8012014
0.071854196 -0.77819473 0.80108821
0.071854182 -0.77823746 0.80091858
0.071854159 -0.77830499 0.80072427
0.071854152 -0.77834421 0.80055112
0.071854144 -0.77834445 0.8004238
0.071854159 -0.77828801 0.80034596
0.071854182 -0.77818555 0.80032098
0.071854196 -0.77811491 0.8002643
0.071854189 -0.77812225 0.80012286
0.071854182 -0.77814728 0.79997092
0.071854182 -0.77811569 0.79986829
0.071854196 -0.77803797 0.79981869
0.071854196 -0.7780205 0.79970199
0.071854174 -0.77811283 0.79948294
0.071854159 -0.77815205 0.79930979
0.071854152 -0.7781629 0.79917192
0.071854144 -0.77819502 0.79900581
0.071854137 -0.77820945 0.79886442
0.071854129 -0.77820259 0.79873711
0.071854137 -0.77816743 0.79863805
0.071854115 -0.77824557 0.79843313
0.071854085 -0.77834857 0.79819643
0.071854077 -0.77835941 0.79805148
0.07185407 -0.77837384 0.797903
0.07185407 -0.77835637 0.79779339
0.0718541 -0.77823973 0.7977826
0.071854129 -0.77810538 0.79778236
0.071854129 -0.77809143 0.79766917
0.071854122 -0.77810585 0.7975207
0.071854122 -0.77808839 0.79740399
0.071854122 -0.77808863 0.79727674
0.071854115 -0.77808177 0.79714942
0.071854129 -0.77803242 0.79707158
0.071854122 -0.77802563 0.79694426
0.071854107 -0.77808255 0.79675347
0.071854085 -0.77815008 0.79655206
0.071854085 -0.77814323 0.79642475
0.071854085 -0.77811867 0.79632217
0.0718541 -0.77806222 0.79624426
0.071854107 -0.77801645 0.79615581
0.071854092 -0.77805215 0.79598618
0.071854092 -0.77804881 0.79586244
0.0718541 -0.77798533 0.79579163
0.071854062 -0.77812016 0.79552317
0.071854033 -0.77824795 0.79525471
0.071854033 -0.77820921 0.79516625
0.071854033 -0.77820235 0.79503894
0.071854018 -0.77824157 0.79486579
0.071853995 -0.7783162 0.79465026
0.071854003 -0.77829522 0.7945441
0.07185401 -0.77824235 0.79446268
0.071854018 -0.77820009 0.79437071
0.07185404 -0.77808696 0.79435635
0.071854062 -0.77799511 0.79431379
0.071854062 -0.77797765 0.79420412
0.071854077 -0.77791768 0.79412979
0.07185407 -0.77791435 0.79399896
0.071854047 -0.77799606 0.79378343
0.071854055 -0.77795029 0.79369497
0.071854047 -0.7779718 0.7935394
0.071854025 -0.77802873 0.79334861
0.071854018 -0.77803957 0.79320371
0.071854018 -0.77803278 0.7930764
0.071854025 -0.77798694 0.79298794
0.071854047 -0.77789158 0.79294884
0.071854047 -0.77787411 0.79283214
0.07185401 -0.77801961 0.79254603
0.07185398 -0.77811545 0.79231638
0.071853988 -0.77805907 0.79223853
0.07185401 -0.77797073 0.7921924
0.07185401 -0.77796388 0.79206508
0.071853995 -0.77798897 0.79190606
0.071854003 -0.77794671 0.79181403
0.071853995 -0.77795756 0.79166913
0.071853995 -0.77796847 0.79152417
0.07185401 -0.77786952 0.79148865
0.071854018 -0.77784497 0.79137897
0.07185398 -0.77796918 0.79111403
0.071853966 -0.7780084 0.79094088
0.071853966 -0.7780087 0.79079944
0.071853936 -0.77809393 0.79058039
0.071853936 -0.77808708 0.79045314
0.071853951 -0.77803069 0.79037523
0.071853958 -0.77796006 0.79031146
0.07185398 -0.7778576 0.79027945
0.071853988 -0.77784014 0.79016274
0.071853973 -0.77787584 0.78999311
0.071853958 -0.77792567 0.78980231
0.071853951 -0.77791882 0.7896679
0.071853966 -0.77787304 0.78958654
0.071853936 -0.77795124 0.78936744
0.071853913 -0.77803296 0.78914487
0.071853913 -0.7780084 0.7890352
0.071853913 -0.77801573 0.78888673
0.071853921 -0.77795225 0.78881592
0.071853921 -0.7779454 0.7886886
0.071853898 -0.77801651 0.78847665
0.071853891 -0.77804154 0.78831053
0.071853898 -0.77799928 0.7882185
0.071853906 -0.7779606 0.78812295
0.071853906 -0.77793252 0.78801686
0.071853891 -0.77796817 0.78784013
0.071853846 -0.77813137 0.78752929
0.071853846 -0.77813166 0.78738791
0.071853839 -0.77812481 0.7872535
0.071853846 -0.77809674 0.7871474
0.071853861 -0.77801198 0.78710485
0.071853869 -0.77798742 0.78698814
0.071853861 -0.77798772 0.7868467
0.071853869 -0.77795959 0.7867406
0.071853876 -0.77789611 0.78666973
0.071853869 -0.77791053 0.78651422
0.071853869 -0.77790725 0.78638339
0.071853861 -0.77792877 0.78622079
0.071853854 -0.77792192 0.78608644
0.071853876 -0.77783006 0.78605092
0.071853876 -0.77781618 0.7859236
0.071853876 -0.77780581 0.7857998
0.071853898 -0.77770329 0.78576785
0.071853876 -0.77776736 0.78555584
0.071853854 -0.77785969 0.78531557
0.071853831 -0.77792019 0.78511417
0.071853802 -0.77801257 0.7848739
0.071853824 -0.77792782 0.78482425
0.071853846 -0.77781469 0.78480989
0.071853839 -0.7778362 0.78464729
0.071853846 -0.77778685 0.78456235
0.071853884 -0.77762413 0.7845974
0.071853891 -0.77758902 0.7844913
0.071853861 -0.77768844 0.784244
0.071853831 -0.77778083 0.78400373
0.071853817 -0.77784127 0.78379524
0.071853787 -0.77794075 0.78354794
0.071853794 -0.77789497 0.78345948
0.071853809 -0.77781373 0.78340632
0.071853817 -0.77776796 0.7833178
0.071853809 -0.7777788 0.78316581
0.071853809 -0.7777862 0.78301734
0.071853794 -0.77780771 0.78284764
0.071853779 -0.77784693 0.78266037
0.071853779 -0.77783656 0.78253657
0.071853749 -0.77793247 0.78228575
0.071853712 -0.77807087 0.78199965
0.071853794 -0.77773815 0.78221822
0.071853824 -0.77761799 0.78220385
0.071853809 -0.77765721 0.78202361
0.071853809 -0.77763265 0.7819069
0.071853779 -0.77774274 0.78164899
0.071853735 -0.77789533 0.78133458
0.071853727 -0.77791333 0.78117555
0.071853749 -0.7778179 0.78113645
0.071853779 -0.77768004 0.78114682
0.071853757 -0.77775466 0.78092426
0.071853742 -0.77780104 0.7807228
0.071853764 -0.77768081 0.78071547
0.071853809 -0.77751809 0.78075057
0.071853809 -0.77750069 0.78062677
0.071853779 -0.77757889 0.78040063
0.071853764 -0.77763581 0.78019571
0.071853764 -0.77762544 0.78006488
0.071853727 -0.7777462 0.77978933
0.071853705 -0.77782792 0.77955258
0.071853735 -0.77769709 0.77955586
0.071853779 -0.77751315 0.77961206
0.071853787 -0.77744609 0.77954477
0.071853772 -0.77748537 0.77935749
0.071853764 -0.77752101 0.77917373
0.071853772 -0.77746463 0.77909583
0.071853638 -0.77798921 0.77836847
0.071853608 -0.77809221 0.77811056
0.071853638 -0.77793306 0.77814209
0.071853697 -0.77769244 0.77826893
0.071853727 -0.7775616 0.77826512
0.071853727 -0.77754772 0.77813786
0.071853735 -0.77750194 0.77804232
0.071853727 -0.77753758 0.7778585
0.071853667 -0.77773273 0.77749473
0.071853675 -0.77770817 0.77738506
0.07185369 -0.77763408 0.77731776
0.07185369 -0.77759892 0.77721161
0.071853705 -0.77752125 0.77715492
0.071853727 -0.77742231 0.7771194
0.071853727 -0.77740484 0.7769956
0.071853697 -0.77750432 0.77674121
0.071853667 -0.77760732 0.77647626
0.071853653 -0.77765721 0.77627832
0.071853608 -0.77783459 0.77593929
0.0718536 -0.77783489 0.77579075
0.0718536 -0.77782452 0.77565289
0.0718536 -0.77779293 0.77554321
0.071853586 -0.77785343 0.77532762
0.071853578 -0.77786785 0.77517211
0.071853638 -0.77762014 0.77530599
0.07185363 -0.77762038 0.77515751
0.071853675 -0.77745062 0.77519965
0.07185369 -0.77735168 0.77516407
0.07185369 -0.77734131 0.77503324
0.071853682 -0.77735221 0.77487415
0.0718536 -0.77766782 0.77436918
0.071853578 -0.77772832 0.77415359
0.071853571 -0.77774274 0.77399099
0.071853556 -0.77779615 0.77378958
0.071853608 -0.77756613 0.77389878
0.071853653 -0.7773999 0.77393734
0.07185366 -0.77735764 0.77383828
0.071853653 -0.77736145 0.77369332
0.071853571 -0.77765936 0.773206
0.071853481 -0.77799976 0.77267629
0.071853481 -0.77796811 0.77255952
0.071853533 -0.77775937 0.77264756
0.071853541 -0.77772421 0.7725414
0.071853578 -0.77756149 0.77258354
0.071853571 -0.77757949 0.77241033
0.071853548 -0.77765065 0.77218419
0.071853735 -0.77688944 0.77275199
0.071853459 -0.77795261 0.77139634
0.071853489 -0.77780408 0.77141726
0.071853518 -0.77766973 0.77141702
0.071853548 -0.7775566 0.77140266
0.071853541 -0.77756399 0.77124709
0.071853533 -0.77757841 0.77107745
0.071853548 -0.77750784 0.77101368
0.071853593 -0.77731323 0.77108753
0.071853586 -0.77733123 0.77091432
0.071853586 -0.77732086 0.77077645
0.0718536 -0.7772361 0.7707268
0.071853608 -0.77720451 0.77061713
0.071853429 -0.7778815 0.76968855
0.071853429 -0.77784634 0.76958239
0.071853489 -0.77759862 0.76971626
0.071853496 -0.77757412 0.76959246
0.071853504 -0.77753186 0.7694934
0.071853518 -0.77745062 0.76943314
0.071853533 -0.77735883 0.76939058
0.071853518 -0.77742636 0.76916796
0.071853511 -0.77743375 0.76900536
0.071853571 -0.77719313 0.76913214
0.071853526 -0.77733862 0.76881778
0.071853586 -0.777098 0.76894462
0.071853578 -0.777116 0.76877141
0.071853586 -0.77705956 0.76869351
0.07185366 -0.77676934 0.76887685
0.071853399 -0.7777617 0.7675705
0.071853451 -0.77753872 0.76767969
0.071853481 -0.77739376 0.76770419
0.071853496 -0.7773338 0.76762277
0.071853518 -0.77721363 0.7676084
0.071853518 -0.77721387 0.76745987
0.071853504 -0.77725315 0.76725847
0.071853474 -0.77735972 0.76698995
0.071853451 -0.77743793 0.76674259
0.071853496 -0.77723271 0.76683414
0.071853511 -0.77716213 0.76676327
0.071853489 -0.77722973 0.76653361
0.071853511 -0.77712375 0.76650512
0.071853578 -0.7768476 0.76667434
0.071853504 -0.77711391 0.76606315
0.071853541 -0.77696186 0.76608765
0.07185334 -0.77767134 0.76480907
0.071853407 -0.77740234 0.7649712
0.071853392 -0.77745575 0.76475567
0.071853586 -0.77661741 0.76497686
0.071853548 -0.77676296 0.76465535
0.071853355 -0.77747542 0.76367027
0.071853377 -0.77739424 0.76361001
0.071853563 -0.77662617 0.76405764
0.071853504 -0.77677262 0.76326948
0.071853437 -0.77703154 0.76281387
0.071853422 -0.77706724 0.76261592
0.071853377 -0.77720928 0.76229799
0.071853362 -0.77727336 0.76206475
0.071853362 -0.77723819 0.76195866
0.071853355 -0.77727038 0.76176423
0.071853325 -0.77736276 0.7615028
0.07185331 -0.77739847 0.76130486
0.071853325 -0.7773279 0.76123405
0.07185334 -0.7772609 0.76115966
0.07185325 -0.77755553 0.76050609
0.071853369 -0.77706361 0.76077747
0.07185331 -0.77728713 0.76035714
0.071853317 -0.77724487 0.76025099
0.071853377 -0.77700776 0.76038134
0.071853377 -0.77697259 0.76026815
0.071853384 -0.77693391 0.76015848
0.071853392 -0.77690583 0.7600382
0.071853317 -0.77717543 0.7595579
0.07185328 -0.77729267 0.75926465
0.071853317 -0.77713704 0.75929266
0.071853347 -0.77699912 0.75930303
0.071853317 -0.77710575 0.75902039
0.07185331 -0.77711666 0.75885421
0.071853422 -0.77666694 0.75923872
0.071853429 -0.77662826 0.75912911
0.071853504 -0.77632731 0.75933003
0.071853533 -0.77620006 0.7593298
0.071853295 -0.77694678 0.75702602
0.071853288 -0.77697188 0.75683868
0.071853295 -0.77693319 0.75672901
0.071853332 -0.77678108 0.75676054
0.071853347 -0.77669281 0.75670737
0.07185334 -0.77671081 0.75652707
0.071853265 -0.77687943 0.75522274
0.071853273 -0.77683359 0.75512725
0.071853243 -0.77692956 0.75485516
0.071853228 -0.77697593 0.75463253
0.07185322 -0.77697623 0.75447696
0.071853295 -0.77659559 0.75383985
0.071853243 -0.77671725 0.75306225
0.071853191 -0.77689499 0.75253224
0.071853399 -0.77599996 0.75282407
0.071853325 -0.77615464 0.7513712
0.07185334 -0.77610183 0.75127566
0.071853355 -0.77602768 0.75120836
0.071853362 -0.77597839 0.7511093
0.071853176 -0.77661741 0.74968916
0.071853228 -0.77640861 0.7497772
0.071853288 -0.77615023 0.74993581
0.071853131 -0.77673525 0.74905652
0.071853243 -0.77629286 0.74928552
0.071853235 -0.77630383 0.74910522
0.071853168 -0.77650285 0.74854696
0.071853206 -0.77636492 0.74855733
0.07185328 -0.77604628 0.74879009
0.07185328 -0.77603596 0.74863803
0.07185322 -0.77624536 0.7482177
0.071853228 -0.77621377 0.7480939
0.071853243 -0.77613962 0.74802655
0.071853332 -0.7757262 0.747895
0.071853235 -0.77599704 0.74675
0.071853161 -0.77623922 0.74580294
0.071853206 -0.77602684 0.74590856
0.071853288 -0.77572238 0.74612725
0.07185331 -0.77561992 0.74608815
0.071853273 -0.77555621 0.74423188
0.071853228 -0.77570534 0.74388564
0.071853213 -0.77566814 0.74295574
0.071853228 -0.77558339 0.742899
0.071853213 -0.77561235 0.74253845
0.071853116 -0.77589387 0.74136162
0.071853228 -0.77527702 0.74034578
0.071853206 -0.77528888 0.73966348
0.071853213 -0.77526438 0.73953259
0.071853228 -0.77519023 0.7394582
0.071853206 -0.77523017 0.73890322
0.071853131 -0.77545762 0.73827428
0.071853124 -0.7754721 0.73808342
0.071853049 -0.77568275 0.73696303
0.071853049 -0.77565116 0.73683923
0.071853146 -0.77523035 0.73689151
0.071853176 -0.7751137 0.73687357
0.071853101 -0.77532053 0.73592645
0.071853116 -0.77524644 0.73585206
0.071853124 -0.77520776 0.7357353
0.071853288 -0.77407205 0.73232847
0.071853302 -0.77399081 0.73227531
0.071853198 -0.77429402 0.73083693
0.071852922 -0.77496034 0.72612172
0.071853064 -0.77435875 0.7264176
0.071853116 -0.77347815 0.72080153
0.071853124 -0.77343595 0.72068834
0.071853071 -0.77343565 0.71892411
0.06994351 -0.79010522 0.86140066
0.06994354 -0.78968114 0.86130798
0.069943562 -0.78947955 0.86134648
0.069943689 -0.78799838 0.86122006
0.069943734 -0.78771889 0.86131501
0.069943748 -0.78748918 0.86127567
0.069943763 -0.78733712 0.86128604
0.069943801 -0.78709656 0.86135632
0.069943815 -0.78696579 0.86135256
0.069943801 -0.7869553 0.86126411
0.069943815 -0.78681034 0.86126739
0.069943868 -0.78626591 0.86125934
0.069944054 -0.78439194 0.86131251
0.069944076 -0.78422576 0.86132985
0.069944076 -0.78414094 0.86129439
0.069944061 -0.78417301 0.86117774
0.069944091 -0.78395015 0.86123741
0.069944128 -0.78368127 0.8613289
0.069944151 -0.7835151 0.86134624
0.069944151 -0.78343737 0.86131078
0.069944181 -0.78320038 0.86137754
0.069944195 -0.78305185 0.86138433
0.069944166 -0.78312993 0.86123598
0.069944166 -0.78308052 0.8611722
0.069944188 -0.78290015 0.86120373
0.069944203 -0.78274459 0.86121756
0.069944233 -0.78253233 0.86127377
0.069944263 -0.78233069 0.86131936
0.06994427 -0.78219992 0.86131555
0.069944255 -0.78220719 0.8612166
0.069944315 -0.78169793 0.8612864
0.069944285 -0.78179723 0.86111689
0.069944412 -0.7809481 0.86143351
0.069944374 -0.7810722 0.86124635
0.069944374 -0.78099447 0.86121088
0.069944397 -0.7808283 0.86123532
0.069944404 -0.78071868 0.86121744
0.069944397 -0.78067285 0.86115015
0.069944419 -0.78028059 0.861054
0.069944479 -0.7799232 0.86121953
0.069944471 -0.77988446 0.86115229
0.069944404 -0.78015369 0.86085576
0.069944404 -0.78007948 0.86081672
0.069944471 -0.77967608 0.86101401
0.069944516 -0.7794143 0.86111253
0.069944538 -0.77922684 0.8611511
0.069944523 -0.77921993 0.86105913
0.069944471 -0.77941835 0.8608191
0.069944575 -0.7787708 0.86110431
0.069944613 -0.7785303 0.86118162
0.069944613 -0.77847028 0.86113554
0.06994462 -0.77836424 0.86111414
0.069944628 -0.77822989 0.86111391
0.069944642 -0.77809554 0.8611207
0.06994465 -0.77800721 0.86108875
0.069944672 -0.77783388 0.86112022
0.069944724 -0.77743417 0.86122209
0.069944732 -0.77733171 0.86120421
0.069944747 -0.77717257 0.86122864
0.069944717 -0.77727538 0.86105561
0.069944702 -0.77727914 0.86095309
0.069944657 -0.77740318 0.86076593
0.069944717 -0.77699995 0.86087126
0.069944859 -0.77602702 0.86121243
0.069945015 -0.77419239 0.86104292
0.069945037 -0.77400494 0.86108851
0.06994506 -0.773821 0.8611306
0.06994506 -0.77375394 0.86108452
0.069945045 -0.77378953 0.86096442
0.069945112 -0.77337903 0.86117578
0.069945104 -0.77333671 0.86111206
0.069945097 -0.77331209 0.8610307
0.069945097 -0.77326268 0.86097407
0.069945097 -0.77318144 0.86093503
0.069945097 -0.77309662 0.86090654
0.069945097 -0.77305436 0.86084282
0.069945097 -0.77296954 0.86080736
0.069945097 -0.77290249 0.86076123
0.069945112 -0.77278578 0.86075753
0.069945239 -0.77182013 0.8609997
0.069945246 -0.77170348 0.86099595
0.069945253 -0.77162576 0.86095339
0.069945268 -0.77148432 0.86096728
0.069945298 -0.77127916 0.86102349
0.069945298 -0.77118021 0.86100209
0.069945291 -0.77115911 0.86092424
0.069945298 -0.77106375 0.86089933
0.069945313 -0.77091521 0.86092025
0.069945328 -0.77080208 0.86090595
0.06994532 -0.77076328 0.86083871
0.06994532 -0.77067852 0.86081022
0.069945358 -0.77044147 0.86089116
0.069945395 -0.770208 0.86097556
0.069945402 -0.77010548 0.86095768
0.069945395 -0.77006674 0.86089045
0.069945388 -0.77002084 0.86083025
0.06994538 -0.76998562 0.8607595
0.06994538 -0.76992208 0.86070991
0.06994538 -0.76987267 0.86065322
0.069945373 -0.7698375 0.86058241
0.069945373 -0.76978099 0.86053282
0.069945365 -0.76972097 0.86047971
0.069945365 -0.76966453 0.86043006
0.069945365 -0.76959038 0.86038399
0.069945365 -0.76951617 0.86034495
0.069945373 -0.76943135 0.86031651
0.069945373 -0.76936781 0.86026692
0.069945358 -0.76935387 0.86018205
0.06994535 -0.76933628 0.86010069
0.06994535 -0.76925856 0.86006522
0.069945358 -0.76914901 0.86005437
0.069945365 -0.76904649 0.86003655
0.069945365 -0.76899356 0.85997629
0.069945358 -0.76895481 0.85990906
0.069945358 -0.76887709 0.85987359
0.069945358 -0.76881355 0.85983104
0.069945358 -0.76877475 0.8597638
0.06994535 -0.76871473 0.85971063
0.06994535 -0.76865476 0.85965753
0.06994535 -0.76858765 0.85961848
0.069945358 -0.76849574 0.85959005
0.06994535 -0.76844639 0.85953337
0.069945358 -0.76837218 0.85949439
0.069945358 -0.76829451 0.85945886
0.06994535 -0.76826632 0.85938102
0.069945358 -0.76816386 0.85936314
0.069945358 -0.76807553 0.85933822
0.06994535 -0.76805091 0.85925692
0.069945343 -0.76801211 0.85918963
0.06994535 -0.76792377 0.85916471
0.069945358 -0.76781422 0.85915393
0.069945365 -0.76770461 0.85914314
0.069945365 -0.76764464 0.85908997
0.069945358 -0.76760942 0.85901922
0.069945343 -0.76762021 0.8589167
0.06994532 -0.76766282 0.8587895
0.069945313 -0.76764178 0.85870457
0.06994532 -0.76754278 0.85869026
0.06994532 -0.76745093 0.85866183
0.06994532 -0.76739448 0.85860515
0.069945313 -0.76737338 0.85852736
0.069945298 -0.76736653 0.85843539
0.069945291 -0.76734191 0.85836112
0.069945276 -0.76734561 0.85825861
0.069945253 -0.76737767 0.85813493
0.069945253 -0.76731408 0.85809237
0.069945246 -0.76726472 0.85802865
0.069945239 -0.76723301 0.85796142
0.069945239 -0.7671836 0.8578977
0.069945239 -0.76710945 0.85785866
0.069945216 -0.76714855 0.85773498
0.069945194 -0.76719832 0.85760069
0.069945186 -0.76717019 0.85752285
0.069945179 -0.76713496 0.85745209
0.069945157 -0.76718116 0.85732138
0.069945134 -0.76720965 0.85720122
0.069945127 -0.76717794 0.85712689
0.069945104 -0.76720291 0.8570103
0.06994509 -0.76719958 0.85691482
0.069945082 -0.76718557 0.85682994
0.06994506 -0.76719993 0.85671681
0.069945052 -0.76719302 0.8566249
0.069945037 -0.7671755 0.85654354
0.069945022 -0.76719689 0.85643041
0.069945015 -0.76715815 0.85636318
0.069944993 -0.76717955 0.85625011
0.06994497 -0.76723641 0.85610169
0.069944941 -0.76731801 0.85594279
0.069944888 -0.76748103 0.85571676
0.069944836 -0.76764762 0.85548729
0.069943488 -0.77342033 0.85011667
0.069943421 -0.77367187 0.84982371
0.069943368 -0.77384204 0.84959066
0.069943316 -0.77403694 0.84933996
0.069943249 -0.77428496 0.84904349
0.069943212 -0.77438426 0.84886688
0.069943182 -0.77444112 0.84871846
0.06994313 -0.77464312 0.84846073
0.06993787 -0.7789529 0.81545371
0.069937818 -0.77911961 0.8151747
0.069937833 -0.77897108 0.81519568
0.069937892 -0.77863485 0.81538242
0.0699379 -0.77853239 0.81535751
0.06993787 -0.77858925 0.81518084
0.069937855 -0.77857882 0.81507123
0.069937833 -0.77859324 0.81493688
0.069937885 -0.77830303 0.81508482
0.069937751 -0.7787143 0.81446332
0.069937721 -0.77877116 0.81428665
0.069937706 -0.77876079 0.81417704
0.069937669 -0.77885306 0.81397212
0.069937676 -0.7787258 0.81396484
0.069937699 -0.77854538 0.8140105
0.069937699 -0.7784642 0.81396437
0.069937646 -0.77864146 0.81368184
0.069937609 -0.77871609 0.81348753
0.069937564 -0.77881902 0.81326497
0.069937527 -0.7789042 0.81306714
0.06993749 -0.77900004 0.8128587
0.069937468 -0.77899677 0.81273496
0.069937475 -0.77890134 0.81270295
0.06993749 -0.7787776 0.8126992
0.069937468 -0.77877784 0.81257194
0.06993743 -0.77886307 0.81237411
0.069937423 -0.77880663 0.8123033
0.069937423 -0.77874309 0.81223953
0.069937423 -0.77867603 0.81217933
0.069937408 -0.7786479 0.81208026
0.069937378 -0.77869421 0.81191415
0.069937356 -0.7787298 0.8117587
0.069937311 -0.77882212 0.81155378
0.069937289 -0.77886486 0.81138414
0.069937289 -0.77878362 0.81133807
0.069937296 -0.77867758 0.81131667
0.069937266 -0.77870613 0.81116819
0.069937244 -0.77875239 0.81100214
0.069937222 -0.7787385 0.81088895
0.069937222 -0.77867138 0.81082875
0.069937207 -0.77865392 0.81072617
0.069937192 -0.77864355 0.81060946
0.069937192 -0.77858353 0.81054217
0.069937184 -0.77851295 0.81048548
0.069937147 -0.77861941 0.8102594
0.069937102 -0.77871525 0.81004393
0.069937088 -0.77869779 0.80993426
0.069937073 -0.77868032 0.80983174
0.06993705 -0.7787053 0.80967975
0.069937028 -0.77872324 0.80954188
0.069937021 -0.77868807 0.80944991
0.069936991 -0.77871662 0.8092944
0.069936961 -0.77878416 0.80910712
0.069936939 -0.77878439 0.80897987
0.069936931 -0.77875626 0.80888784
0.069936916 -0.77873522 0.80878174
0.069936901 -0.77871066 0.80867916
0.069936894 -0.77867192 0.80859071
0.069936872 -0.77867925 0.80845636
0.069936849 -0.7787255 0.8082903
0.069936834 -0.77870452 0.80818421
0.069936827 -0.7786622 0.80809927
0.069936797 -0.77869081 0.80794376
0.069936767 -0.77874058 0.80777413
0.069936745 -0.77874792 0.80763978
0.069936745 -0.77867377 0.80758661
0.069936737 -0.7786386 0.80749464
0.069936723 -0.77863884 0.80736738
0.069936708 -0.77861428 0.8072648
0.069936693 -0.77860385 0.8071481
0.069936663 -0.77865368 0.80697846
0.069936641 -0.77866805 0.80683708
0.069936626 -0.77865767 0.80672038
0.069936603 -0.77866852 0.80658251
0.069936588 -0.77864748 0.80647641
0.069936574 -0.7786265 0.80637032
0.069936544 -0.77866924 0.80620068
0.069936529 -0.77867651 0.80607343
0.069936514 -0.77865905 0.80595672
0.069936484 -0.77869469 0.80580121
0.069936469 -0.77869493 0.80567396
0.069936454 -0.77866685 0.80557489
0.069936439 -0.77863872 0.80547583
0.069936424 -0.77861774 0.8053627
0.06993641 -0.77860022 0.80525303
0.069936395 -0.77861112 0.80511516
0.069936372 -0.778629 0.8049773
0.069936365 -0.77857965 0.80489236
0.069936365 -0.77850199 0.80484277
0.069936335 -0.77853763 0.80468017
0.069936283 -0.77866536 0.80442584
0.069936261 -0.77869749 0.80426681
0.069936261 -0.77863044 0.80420661
0.069936231 -0.77865547 0.80405462
0.069936201 -0.77871591 0.80386734
0.069936179 -0.77872324 0.80373299
0.069936179 -0.77864552 0.80368334
0.069936186 -0.77854657 0.80364782
0.069936171 -0.77852559 0.80354172
0.069936156 -0.77850103 0.80343914
0.069936149 -0.7784481 0.80336481
0.069936134 -0.77843416 0.80325162
0.069936104 -0.77849108 0.80306786
0.069936067 -0.7785728 0.80285233
0.06993603 -0.77862614 0.80267215
0.069936022 -0.7786051 0.80256605
0.069936 -0.77861243 0.8024317
0.06993597 -0.77864456 0.80227268
0.069935955 -0.77863419 0.80214888
0.06993594 -0.77861315 0.80204278
0.069935925 -0.77860981 0.80191904
0.06993591 -0.77857465 0.80181998
0.069935903 -0.77854657 0.80172098
0.069935873 -0.77857161 0.80156898
0.069935851 -0.77861077 0.80139577
0.069935821 -0.7786358 0.80124378
0.069935821 -0.77857935 0.80117297
0.069935821 -0.77847689 0.80114806
0.069935806 -0.77846652 0.80102432
0.069935769 -0.77854115 0.80082291
0.069935739 -0.77858031 0.80064976
0.069935717 -0.77859122 0.8005119
0.069935702 -0.77859497 0.80038106
0.069935687 -0.77857393 0.80026788
0.069935672 -0.77854586 0.80016881
0.069935672 -0.77847528 0.80010509
0.069935665 -0.77843297 0.80002016
0.069935627 -0.77849346 0.79982579
0.069935575 -0.77862471 0.79956794
0.069935553 -0.77865332 0.79940534
0.069935545 -0.77859688 0.79933453
0.069935538 -0.77855104 0.79924607
0.069935523 -0.77854419 0.79912585
0.069935501 -0.7785551 0.79898089
0.069935478 -0.77856243 0.79883951
0.069935478 -0.7784918 0.79878283
0.069935463 -0.77848142 0.79866612
0.069935434 -0.77852064 0.79849297
0.069935411 -0.7785244 0.7983551
0.069935396 -0.77849275 0.79825956
0.069935389 -0.77844697 0.7981711
0.069935374 -0.77842951 0.79806143
0.069935337 -0.77850056 0.79785651
0.069935299 -0.77857167 0.79765159
0.069935299 -0.77850461 0.7975843
0.069935262 -0.77857566 0.79738641
0.069935217 -0.77868217 0.7971462
0.069935203 -0.77865052 0.79704362
0.069935188 -0.77863306 0.79692692
0.069935173 -0.77861911 0.79681373
0.06993518 -0.77851665 0.79678172
0.06993518 -0.77845311 0.796718
0.06993515 -0.77849233 0.79654479
0.069935121 -0.77852446 0.79637873
0.069935098 -0.77853888 0.79623026
0.069935076 -0.77854973 0.79609239
0.069935083 -0.77845436 0.79605329
0.069935083 -0.77837664 0.79600364
0.069935068 -0.77834505 0.79590106
0.069935054 -0.77833462 0.79577732
0.069935046 -0.77828175 0.7956959
0.069935016 -0.77832806 0.79551566
0.069934957 -0.77848417 0.79522604
0.069934919 -0.77856582 0.79501051
0.069934897 -0.77855903 0.79488325
0.069934882 -0.77855217 0.79475594
0.069934867 -0.77852052 0.79465336
0.069934867 -0.77845347 0.79459316
0.06993486 -0.7784006 0.79451174
0.069934845 -0.77837956 0.79439855
0.069934823 -0.77838689 0.7942571
0.0699348 -0.77840483 0.79410511
0.069934785 -0.77839798 0.79398489
0.069934778 -0.77834868 0.79389292
0.069934741 -0.77840912 0.79369855
0.069934689 -0.77852982 0.79344422
0.069934674 -0.77850878 0.79333103
0.069934681 -0.77842051 0.79328489
0.069934674 -0.77836758 0.79320353
0.069934651 -0.77836078 0.79308331
0.069934614 -0.77845311 0.79285008
0.069934562 -0.77856314 0.79260635
0.069934539 -0.77858466 0.79244375
0.069934525 -0.77854949 0.79234469
0.069934525 -0.77848244 0.79228449
0.06993451 -0.77845788 0.79217482
0.069934495 -0.77843684 0.79206163
0.06993448 -0.77843004 0.79193437
0.069934458 -0.77843028 0.79179293
0.069934458 -0.77835965 0.79173625
0.069934458 -0.77828908 0.79167247
0.06993442 -0.77834952 0.79147816
0.069934398 -0.77837104 0.79131556
0.06993439 -0.77830756 0.79124469
0.069934368 -0.77833259 0.79108566
0.069934331 -0.77838951 0.79089487
0.069934323 -0.77833307 0.79081696
0.069934323 -0.77825892 0.7907567
0.069934309 -0.77823085 0.79065061
0.069934279 -0.77828777 0.79045272
0.069934241 -0.77835178 0.79025483
0.069934234 -0.77831304 0.79015929
0.069934212 -0.77831686 0.79001439
0.069934167 -0.77840567 0.78978473
0.069934152 -0.77839172 0.78966445
0.069934145 -0.77832824 0.78959364
0.069934107 -0.77841705 0.78936398
0.069934078 -0.77845621 0.78919083
0.069934092 -0.77831477 0.78919762
0.069934078 -0.77829731 0.78908092
0.069934048 -0.7783224 0.78892189
0.069934025 -0.77832973 0.78877342
0.069934003 -0.77833706 0.78863198
0.069933981 -0.77834082 0.78848708
0.069933958 -0.77835172 0.78833503
0.069933951 -0.77832007 0.78823245
0.069933943 -0.7782566 0.78816164
0.069933914 -0.77829933 0.78798491
0.069933854 -0.7784484 0.78768116
0.069933824 -0.77849823 0.78749031
0.069933817 -0.77844179 0.78741241
0.069933817 -0.77834994 0.78737688
0.069933809 -0.77830768 0.78728491
0.069933794 -0.77829731 0.78715408
0.069933772 -0.77830821 0.78700209
0.069933742 -0.77833325 0.78683591
0.069933735 -0.77829808 0.78673685
0.069933712 -0.77828765 0.78661311
0.069933675 -0.77836943 0.78638345
0.069933645 -0.77840507 0.78620672
0.06993366 -0.7782495 0.78623474
0.069933668 -0.77815408 0.7861957
0.069933623 -0.77825707 0.78595191
0.069933578 -0.77833879 0.78572226
0.069933578 -0.77825403 0.78567261
0.069933593 -0.77812678 0.78567237
0.069933563 -0.77815533 0.78550273
0.069933541 -0.77816266 0.78535426
0.069933519 -0.77815938 0.78521633
0.069933489 -0.77820927 0.78502554
0.069933452 -0.77826619 0.78482056
0.069933422 -0.77831602 0.7846297
0.069933414 -0.77826667 0.78454477
0.069933414 -0.77818191 0.78449512
0.069933392 -0.77820343 0.78433251
0.06993337 -0.77820373 0.78419113
0.069933355 -0.77818626 0.78406733
0.069933325 -0.77822191 0.7838906
0.069933318 -0.77815843 0.7838127
0.069933303 -0.77814096 0.78369606
0.069933273 -0.77816248 0.78353345
0.069933258 -0.77813792 0.78341669
0.069933221 -0.77822322 0.78318352
0.069933191 -0.77824825 0.7830174
0.069933169 -0.77825916 0.78285831
0.069933124 -0.77834088 0.78262866
0.069933109 -0.77831632 0.78251898
0.069933109 -0.77825636 0.78244466
0.069933094 -0.77823889 0.78232086
0.069933087 -0.77818251 0.78223592
0.069933094 -0.77805167 0.7822392
0.069933049 -0.77814406 0.78199899
0.069933027 -0.77815491 0.78184694
0.069933012 -0.7781446 0.78170907
0.069932967 -0.77822983 0.78147584
0.069932915 -0.7783435 0.78121442
0.0699329 -0.77834374 0.78107303
0.069932871 -0.77835816 0.78091043
0.069932863 -0.77830881 0.7808184
0.069932893 -0.77812839 0.78087819
0.0699329 -0.77801883 0.78085321
0.069932848 -0.77812183 0.7806024
0.069932811 -0.77818584 0.78039038
0.069932804 -0.77813655 0.78029835
0.069932759 -0.77822536 0.78005457
0.069932736 -0.77822918 0.77990961
0.069932744 -0.77813733 0.77986705
0.069932729 -0.77811635 0.77974677
0.069932707 -0.77809888 0.77962303
0.069932699 -0.7780602 0.77952039
0.069932692 -0.77800375 0.77944255
0.069932662 -0.77804649 0.77925169
0.06993261 -0.77814949 0.77899379
0.069932565 -0.77825958 0.77872878
0.06993255 -0.77822089 0.7786262
0.06993258 -0.77803695 0.7786895
0.069932558 -0.77803719 0.77854103
0.069932528 -0.77807641 0.77835369
0.06993252 -0.77801293 0.77828288
0.06993252 -0.77793527 0.7782191
0.069932491 -0.77797097 0.77803534
0.069932438 -0.77809167 0.77775973
0.069932446 -0.77798206 0.77774191
0.069932416 -0.77801782 0.77755105
0.069932379 -0.77808535 0.77733546
0.069932312 -0.77825212 0.77700698
0.069932282 -0.77827722 0.77683377
0.069932304 -0.77812159 0.77686179
0.069932304 -0.77804393 0.77679801
0.069932289 -0.77801228 0.77668834
0.069932275 -0.77799481 0.7765646
0.069932245 -0.77800572 0.77641255
0.06993223 -0.77800602 0.77626407
0.06993226 -0.77779722 0.77635211
0.069932304 -0.77755308 0.77647537
0.069932081 -0.77832919 0.77546918
0.069932066 -0.77829754 0.77535951
0.069932066 -0.77820569 0.77531689
0.069932036 -0.77824849 0.77511901
0.069932029 -0.77819562 0.77503049
0.069932014 -0.77816397 0.77492088
0.069931991 -0.77818197 0.7747547
0.069932215 -0.77722925 0.77568281
0.069932178 -0.77728975 0.77546728
0.069931887 -0.77831739 0.77416098
0.069932081 -0.77749217 0.77494794
